-0.00507324839005756 -0.0482528842548941 0.0803626168240341
-0.0792315618544358 0.338884026087674 0.0329651896836388
0.283230795839029 0.138135240369994 -0.0511673877413492
0.0502880627022137 0.00475286006920861 -0.0345964800399923
0.0317678681294878 -0.112778116820985 0.0690277200496836
-0.502743067901469 -0.10834977601215 -0.00164024321508415
0.0110503081101061 -0.466186587327947 -0.074643034771098
-0.0878113539439951 -0.041745545037769 -0.0179752475500652
-0.0428295957856223 0.478587014974669 0.0946622257742413
0.0751020403952016 -0.253359478422501 -0.000284999521179635
-0.300867138770921 0.0111269093935621 -0.015152935698162
-0.0147887352391638 -0.758399387792459 0.115292448968728
0.0057493339347081 0.956390019335816 0.0155424759598678
0.0596439932901188 0.268250141285948 -0.0570604330140586
-0.178471441141063 0.180695311602294 -0.00108538637079002
0.302660892042381 -0.00684807064564604 -0.000795071957075738
-0.0641084635381909 0.383423003370307 0.0713999799124711
-0.759915181613068 -0.201101614817144 0.0143444284237409
-0.0392870174862402 -0.148649212205727 0.0668314115480096
-0.147805364161023 0.00291171977582114 -0.0269013602228935
-0.0036707489496145 -0.146404748491797 0.00536300271742565
-0.0365199057300538 0.724550533480304 -0.0159699593064622
0.0776046482756341 0.481910061886188 0.048810443730164
-0.258596876468527 0.183248123759939 -0.0996658595319192
0.0501506612644473 0.826009622543028 0.104353781341067
-0.0522615580867894 -0.678100215320057 0.0129025097750847
-0.00798638583056253 0.26311455929412 0.0956116382353946
-0.0468569172490772 0.0788756878069204 -0.0473994243274903
0.557342463595957 0.0644237903950684 -0.00702873667327001
-0.0123805129232252 -0.300789506362878 -0.0369144867611578
0.0625116287970626 0.900660616916916 0.0557167324930193
-0.0610662074302881 0.63692084226756 -0.00123272107128608
-0.0779605882840159 -0.453031971376556 0.00669584278623177
0.184656854399696 0.0352261576259661 -0.101596292963431
-0.066370275099648 -0.193875344140966 -0.044637181984977
0.0211527017821076 0.0535162903866349 -0.074077942496855
0.295778309817059 -0.0778572752943306 -0.0380836241021097
0.0600748707901352 0.710287979027176 -0.00378180155041415
0.0717518947517085 -0.131368919988836 -0.0180045230252123
-0.026011966620665 0.122223523700921 0.0179519838410096
-0.0189212271571748 0.084874063438564 0.0845613813909915
0.239576342068481 0.257963465980241 -0.0751127293570962
0.151104474066804 0.12367664027112 -0.033251308283966
0.0124195378311812 -0.75552156510223 -0.0153212980607982
-0.0235937227329895 -0.0140575418772111 0.0122092212315485
0.645994271411668 -0.141752660704931 0.0225093266148995
0.108592626719449 0.00556668293909253 -0.029219305986557
-0.128910875433809 0.102472779973844 -0.0055190905121532
-0.574636635391811 -0.167975234040732 0.000881404736850771
-0.254611702898798 -0.861622097441292 0.0303609053840361
-0.0186306094297189 -0.815861789681577 -0.0037562363320235
-0.0115741468742977 -0.846420138232845 0.176613841757506
-0.0689898863391475 -0.791760635496125 0.0129388316848661
0.0622365554256006 -0.182106906182711 -0.0364994030329109
-0.296620362036903 0.186411408008648 -0.0368272320565089
-0.221576811102732 0.214845354138177 -0.0348940298701227
0.0305012843364004 0.758822143090428 -0.0195596468705111
-0.244201610776863 -0.0205248604769478 -0.0230415605605107
-0.0290790183666782 -0.02842990229307 -0.0709444380378287
0.165708574179161 -0.0366903186567129 -0.0340963515651832
-0.581403323883963 0.00326551157328333 -0.0566598572358087
0.0776680445809548 0.397257646781122 0.0415350676032513
0.0263279373834387 0.235332166054934 0.0904746126107466
-0.0419250795357328 0.586923271482438 0.100396497849805
-0.0611011932516804 0.107796527749541 -0.0706362246703725
-0.53173907926431 -0.073343861734308 -0.0432952836258003
0.0396991462857714 0.0182007655360785 0.071500259493698
0.506053849560697 -0.0182500392006471 -0.0663989795085556
-0.010427919337151 0.181122631491661 -0.0674942955204699
-0.478547979623831 -0.0115487012015004 0.00120639335115475
0.478176943484878 -0.0532910292023221 -0.000417384867758369
-0.526949015868229 -0.141580565277577 -0.00201615786943765
-0.07939694853159 -0.109718540732004 -0.0150201563928814
0.0592229165999271 -0.525504066810201 -0.0307751362670809
-0.615170119866423 -0.135581106921263 0.0166665365232519
0.0232534734833348 -0.278461487316244 -0.0647211719686809
-0.0862481355378452 0.0714382273328979 -0.0073330375747024
0.267033033696323 0.121672163277972 -0.00676503492947176
-0.359590945923169 0.0584928869303375 -0.00644891625130724
0.123546715005869 0.115658956967486 -0.00298479954935799
0.073921038556688 0.46907357889057 0.00499987852333614
0.445569127937313 -0.131296411680149 -0.00595647953240157
-0.534110995401152 -0.0357696109104059 -0.0792227799045877
0.0282860588063315 -0.358152940119571 -0.0754709048054505
0.064650786034496 0.267138004563649 0.0633631734562915
-0.188739673868379 0.0417317472782996 -0.122762024243591
-0.136877536107539 -0.00871659135910632 -0.116427070447291
-0.318099926788979 -0.0282706213441453 -0.00931216949020018
0.29293967227668 0.0617078854771436 -0.012689731908377
0.0195932772145788 -0.490463144741327 0.0531909757231162
-0.00675057827855052 -0.915882494207057 0.212916238214407
0.0505784402470252 0.500238532806949 0.0918210323485632
-0.0282196140577358 -0.626405658324619 -0.041700883932168
0.0741198509589304 0.191531924384908 -0.0597508012560157
0.16943588944668 0.0607314026596746 -0.00674034530241461
0.579612449827113 0.0367785877880908 -0.0341282013558664
0.354939516376651 -0.0967239676361983 -0.0127203039824856
0.327741844194363 0.0509300010403075 0.0121570352229477
0.21672022645112 0.158191631399367 -0.00374877313091331
-0.573723281836261 0.0712238891776273 -0.0214299542054154
0.109946542045866 0.0497144352459163 -0.017751224290012
-0.0679850058085208 -0.0519920326312481 -0.0758597464820561
-0.0740631194684311 0.557827809731259 0.0154260418384946
-0.00486614355497739 0.0757596267404484 0.0168938859621574
-0.0768753641563187 0.309051901032507 0.00788886525001687
-0.754996295018675 -0.172587930579312 0.0179444821534425
-0.0523432531530956 0.913058919202507 0.0562145202493184
0.0489025978351292 -0.262718591745844 -0.0231067064543232
-0.0713536211476255 0.447684178312578 0.0641583512107716
-0.0148023751827095 -0.00628873139517747 -0.105875394032018
-0.108923967647853 0.181595018467578 0.00628140854069641
0.0445492547592912 0.669591886533899 -0.0162914299478292
-0.553981143015787 -0.0028570872063292 0.000726803066189526
0.085859788967987 0.218925520970655 -0.0104528772668572
0.12735816322541 -0.830606365403415 0.0288009248684269
0.0412064598157693 0.320597064556808 0.0875049766573317
-0.0726442735561871 0.81455444422419 0.0442699825923215
0.261866731489777 -0.0592389614881188 -0.0219815971686446
0.0167779983769477 0.0342361756550334 -0.13066461476209
-0.141845377651953 0.0485709007833029 -0.014476107487528
0.0463043793017306 -0.631487255988795 -0.0102681226958775
0.0377964913245554 -0.293037143231762 -0.0323764925344621
-0.00187872156288795 -0.235537947743706 0.0705884759235642
-0.00326356093137474 0.0202217945298684 -0.057649180732499
-0.279469243086939 0.26232937369917 -0.0827228229741483
-0.075248198134145 0.527451635673216 0.0554296734005358
-0.512223815155568 -0.00766818794959395 -0.0107358266326333
-0.0471110639865219 0.245902985239171 -0.0617445683112288
0.0369260264238712 -0.74712984274999 0.0244859162705172
0.06254462128106 0.619393561020272 -0.00426760778617273
-0.505942347740012 0.0240010464273908 -0.0617454028030243
0.247927136404659 0.168895661636996 -0.0973851537520355
-0.229562701973891 0.0428541685667445 -0.00348908730168551
-0.424805130709493 -0.0829449875683067 -0.00870524423299805
-0.135967512369202 0.0625183341939743 -0.0393519550906293
0.0699239475557136 -0.433273146635717 -0.00258557436464386
0.550653996937802 -0.105618217037501 0.0160653647828314
-0.0696367186218645 -0.240015490621067 -0.0429647856471063
0.0715344562326788 -0.335587977762421 0.00936195023240099
-0.079676576037198 -0.332799390632114 -0.032120402132128
0.489880484880239 -0.109333338592225 -0.0167312494330125
-0.0730505686371172 0.113324768229895 0.0475283211633474
0.790963616625674 -0.240987672028454 0.0255545976771399
0.158198453676493 0.0722918137104437 -0.0344040019234793
-0.208931409160166 0.148323199954206 0.0066288146065619
0.0740527601120838 0.176104250573364 0.0399500281767571
-0.693340504514102 -0.18444525596803 0.0182378690689765
-0.184331484461621 0.0497631400772309 -0.0485707293306204
-0.323697090475503 0.064545367220412 0.0117838543401389
-0.0493130996683695 0.381369122267133 -0.0273416824209817
0.051954164716448 0.875312303202518 0.0137224597403809
-0.0562099330114706 0.810126491943749 0.00643404611042074
-0.0712080634749243 0.409697345692395 -0.00115815482292629
-0.070128110189858 -0.158248048578389 0.0399276024842782
0.0828617866499941 0.148602964278716 -0.0543665466581797
0.417181327825846 -0.126620025798901 -0.0101813250823658
-0.00161324155126742 0.428567000846196 0.105171032852853
0.00171635439674283 0.665188046538769 0.105331538852596
0.117460301824131 0.159413694813845 0.0040414204036163
-0.0677805027545957 0.466050899655193 -0.00243885122350582
-0.0472983367605799 -0.713701476832455 -0.002626595569168
0.0535276319594957 0.242278849544358 -0.0235884021024679
-0.0633741244245077 -0.190817100415961 -0.00309397070502983
-0.0955790963754771 -0.0180596871011279 -0.0445385497040409
-0.54436802243304 0.0557273241442111 -0.0342893483410145
-0.0313638322730387 0.335419651728888 -0.0399261354176682
0.640365105764654 -0.183368777955263 0.0143653853623455
-0.0563324762118461 -0.762810465891333 0.0239611839167194
0.0823098540286436 0.737108266660683 0.048191235609629
-0.368745355064298 -0.0467833670353575 -0.0121601074779524
-0.015706944326126 -0.696317954816522 0.0738451285278726
-0.0521239076054036 -0.545622160724542 -0.0485862209235779
0.0597525157098933 -0.0991322309089272 0.0477388392083707
0.010793339758171 -0.223404614129909 -0.064280310885288
-0.0345350298564511 -0.281284220234703 -0.0732521836682743
0.296922870865657 0.206484685578153 -0.0740916597080234
0.430207486065436 0.00432043271752941 0.015557517646554
-0.0434656173203174 -0.271622582730226 0.0583804808731772
-0.264124077137966 0.239910069526293 -0.042279651184525
-0.000986858269227932 0.213088191462102 -0.0292943218203757
-0.0785259229815523 -0.486740096666453 -0.0124768327213851
0.163859482253341 -0.00509083107122712 -0.021655937127368
-0.0262955345713666 -0.499492614962628 0.0536346201716414
-0.0579099601821505 0.284993371216058 -0.0555523098271177
0.672214494614646 -0.171834135309582 0.0108430212530579
-0.0719934877557563 0.202625513422814 -0.00788680916222026
0.0814245544105849 -0.0705178944717248 -0.0329879238634527
0.369998337704142 0.0202655110582272 0.0124394646776839
-0.0434081080937644 -0.637690321641626 0.0365332168343093
0.231702169060159 -0.0199417705686264 -0.0234812502173995
-0.0124706740339867 -0.17134507403575 -0.0657746680925682
-0.237340923449484 0.215173161967212 -0.0926627532413915
-0.100263827881746 0.226269728910909 -0.00262173146921622
0.0213426001087595 -0.0841930919677423 -0.0767933570511097
-0.00798071166626327 -0.831303842080454 0.0567643039443013
-0.0284451062671233 0.0674396917022531 -0.0665502499874673
0.258734865400274 0.228704481033207 -0.0959969803519092
0.0580002668780169 -0.177365465835812 0.0453670706897211
-0.285311819953164 0.118885007968815 -0.00393516952463346
-0.577289834532245 -0.0295239073441352 -0.05902017764019
0.170718694988442 -0.861506183758284 0.0310164182363106
0.372631817697196 -0.0464580148273084 0.00176519090714427
0.0584361760590583 0.502137074970244 -0.0149469222331486
-0.0757284898607843 0.170124102084942 -0.0619907983434434
0.060353521820978 0.81070518736527 0.00480966649566875
0.559767969216189 -0.0169789301884309 -0.00371588230113768
-0.102888953432004 0.191640956502745 -0.0401867716841423
-0.0785473381362801 0.262008657730515 0.00425112382987115
0.298603697980304 0.174995135098206 -0.0490332580873795
0.0214899347476604 -0.0186493915679911 -0.099618160936616
0.725488889807149 -0.2035894393447 0.0230607371815884
0.0335394656804169 0.534886521352983 -0.0295223458615077
0.0304262358083479 -0.129411147570411 0.0062851589623044
-0.00362853084910343 -0.717647290313505 -0.02676822781777
-0.557361953504155 -0.0576453568581029 0.0179545054378431
0.0538922939741862 0.706988666367303 0.101352052558942
0.517103093742736 0.0554423488468939 -0.00376920886506448
0.0495431446013335 -0.409698508948443 -0.0607360638625703
0.00894425987469301 -0.0112879634889965 0.0805326398182504
0.21668402916648 0.0896766552850212 -0.0215907746390735
0.287615896140825 0.258213713451169 -0.0489829823676279
-0.0272095823864531 -0.576578662634677 0.0495197482545114
0.0261855042992059 0.00665119826326957 0.0133440907223648
0.260539691322558 0.0915767246575737 -0.0143307621293462
-0.00336464439596851 -0.880085129432383 0.223775659328433
-0.0587014023739409 0.290820190959496 0.0749087694721681
0.179487201513985 0.01181870335881 -0.0534272861423201
0.0850460655878174 0.076253106850417 -0.0140941574488647
0.195421600426986 0.0290976576480939 -0.0312084036926968
0.495640372100854 -0.0256908495574627 0.00444143644467866
-0.239301103668589 0.11012691235965 -0.0173364952904327
0.031906579858066 -0.157381047046477 0.0664431867540566
-0.0113190406837087 -0.211983094943467 -0.00707981345154795
0.431420260283376 -0.0776572204910157 0.00433499328187477
-0.811925134631548 -0.230753083618892 0.0324478452535679
-0.142638921135746 0.035588298637701 -0.106097961825171
-0.526845743183776 -0.0532631245633411 -0.0141597974161368
-0.00571087301718128 -0.140663194172934 0.0755611636391513
-0.0500363697811213 -0.360072940601216 0.050096379860237
0.249286887876001 0.0249325820058274 -0.018996978348816
0.0501897002502341 0.651212843838933 0.100500570909594
-0.0159274084808297 0.252269630699274 -0.0433610769429476
0.0859684702029544 0.258395997583529 -0.0201315604594075
-0.285811457493902 0.166414005433711 -0.0883973687815188
-0.137735046949086 -0.778312348380135 0.0234958703965377
-0.0412143588503675 -0.103312294775495 -0.0760282127626767
-0.234654485928776 0.177073050507853 -0.0250222721946709
-0.276405461696033 0.117917180235854 -0.0637467912471295
0.0507809908419276 -0.257784163737938 0.0492528012827171
0.0060312970970649 -0.598883164358424 -0.0503371800680521
0.00223826178266354 -0.714196947102936 0.0569441104361883
-0.0533055537296011 0.323264348349821 0.080770481222093
0.0377664315496714 0.77175187609449 0.114600517635996
-0.0101475957142134 0.564826098939446 0.110502366816812
0.192993282699916 0.0787138114804678 -0.000736821244477932
-0.549994147059397 0.0476188294122238 0.00284312174744084
0.0247446990903698 -0.0308810495694121 -0.04214160119606
-0.225658429565883 0.0124205525278628 -0.00958502305938438
0.151810273118922 0.0299459282575201 -0.0863053094443091
0.0731370084972689 -0.364463538817698 -0.000380985669176269
-0.276196221889621 -0.00104786222808078 -0.00541837560554282
0.0187722552245875 0.856263277836217 -0.0560316119333787
0.186919094884362 -0.00370640248364124 -0.0998760963754362
-0.159328394947521 0.0234834426001352 -0.024194220120681
0.561774432284289 -0.0056392550272439 -0.0747161051824435
0.0414521742877849 -0.823717548833157 0.0127831575174507
-0.112528048577368 0.00171212173564233 -0.0366027318142307
-0.0425267925254808 -0.335191461511263 -0.0716102895204414
-0.0606513114071486 0.124074344498916 0.0170811468087121
-0.0027372261661963 -0.770027370819468 0.0457879279662227
0.299687733612181 -0.0404181757568014 -0.0226651349605266
-0.298685408058347 -0.0568333124278438 -0.0186753265173531
-0.281851767387389 0.0489261706680636 -0.0154350478182963
0.0125968513694991 0.12877495830082 0.0161996022941922
-0.0151190475351891 -0.0753491260637842 0.00903776459586732
0.0797473721726296 0.446931924287624 0.0296284202592891
0.254914114875025 0.236350554018839 -0.0508933694175041
-0.497092514414058 -0.0896483241572409 -0.000281028440147487
-0.632387439254412 -0.103278715995105 0.00981543781241325
-0.0602353219466657 0.241840076884942 0.0706943404493795
-0.162095629793302 0.0938252542295278 -0.00309558033032157
-0.109716161226092 -0.804779182960503 0.0161883940785957
-0.225365747443185 -0.0562405862008537 -0.0275470480468685
-0.0486775880547101 0.313267094344752 -0.0311482448923074
0.0326699189920128 0.238123832587423 -0.0626114679591337
0.0148387489742359 -0.637185592004605 0.0463737599947991
-0.00935708239907852 -0.85177968405772 0.141347301047312
-0.000104531132278428 -0.356594233698022 0.0638367214654364
0.154342019796068 0.178269205903373 -0.0223844253206206
-0.0657488829997719 0.739864926595142 0.084378011033204
-0.064731231772232 -0.370390323602772 -0.0567069822968665
0.755504824788334 -0.22443850295442 0.0233686232044481
-0.656537200090853 -0.161596248382148 0.00793444556657057
0.0567686872656237 0.418961049427504 -0.0207536559137315
0.192406138320146 -0.0677409092979347 -0.0474018883739426
-0.0282010321753961 -0.3784577282046 0.0593583135904302
-0.582689997945696 -0.0994764312544525 0.0180829757238879
0.079324725738879 0.701879253958983 0.0330518342622484
-0.112005133884053 -0.0432248703462487 -0.0433885214407649
-0.0514628267099507 -0.036728353637613 0.0109975601214418
0.651080458314523 -0.218732922911191 0.00665268341891898
0.0556581201862705 -0.475340872307188 0.0266221767691759
-0.00867021132096953 0.6843185130958 -0.026649784075695
0.0685699007740783 0.0289754941348568 -0.0719655504677648
-0.0483838212700098 -0.474557311982755 -0.0628844875146968
-0.0140696169555534 -0.304015360217476 0.0657422506479219
-0.0640849205171608 -0.575818133637282 0.0194107789365474
0.00529924876083957 0.85345948392533 -0.0273235584198945
0.0610681528489909 -0.53487635908797 0.00315037538190121
-0.0205333376535662 0.893162663206772 0.000630762070647249
0.0348166761264067 -0.38281656031647 0.0519253583901466
0.267095876636245 0.0913890879221597 0.0107640037708993
0.0211336444418092 0.0467794009992543 -0.116330563648684
0.0116137344834948 -0.317693871026296 -0.0496253730682288
0.527404986877037 -0.0519371222604115 0.017891150840278
0.554074923709513 -0.0800013428623626 -0.0523212290606823
-0.0409002771062209 -0.0993293692110149 0.0681975654103177
-0.24155699384013 0.234834483268059 -0.0169238711783062
-0.0030783312823771 -0.817399628423923 0.228781544676634
0.0796992765279732 0.529855658657834 0.0431170104342386
0.0348123544041608 0.279862239756864 -0.0394888073539464
0.000868780531335741 0.514523763864549 0.109932945681541
-0.0122141530433731 -0.666032916186691 -0.0354394661972979
-0.196663065184569 -0.0352460985885134 -0.0250825866338482
0.726882417921219 -0.170572355187616 0.0168510968410094
-0.180579961048373 -0.84808565663767 0.0230382781941545
-0.011515411160275 0.604025222245662 0.112246761534084
0.0800216968837835 0.79152725179958 0.0570226167775392
0.0518764361951437 0.785293809912328 -0.00549016433965925
0.540194070419057 -0.150249756312104 -0.0195134735793474
-0.0751991796556477 0.696320481858276 0.032080384646589
0.0795651628394956 0.0175902068343935 -0.00352722577436879
0.072997240317669 0.106349165795313 0.0338451485169579
0.0424178483800378 -0.601754712594588 0.0272962585808894
-0.0853988292562047 0.135729572586041 -0.0558439938462621
0.00257494758454358 0.829971660006718 -0.0447328838137489
-0.0598649963788458 0.50596461880323 0.0825037663638225
0.0056805385893917 -0.538164438658912 -0.0648113058757384
0.0318718157130012 0.367640254176295 0.095860481782672
0.483975894420247 -0.142555607731893 -0.0154674675249133
0.0760414650886364 -0.788588343925269 0.0263479953135232
3.6094451851452e-05 -0.693034651539 0.109728441496757
-0.0647232992124368 0.726029362886076 0.00922551170851385
0.0306034654625735 0.908178668800177 0.103118033197749
-0.0402083028067395 0.576829655978309 -0.0219779770365768
0.401167722553824 -0.0594036271249342 0.00345426054840973
-0.772724130755099 -0.234468595952315 0.0136428781390294
0.000630380415592747 -0.787403412912205 0.147260650345696
0.0754912202731715 0.424483143247063 0.0538068962410727
-0.0186557809044891 -0.740224306925125 0.0426068121944097
0.0577919877727668 0.161291948881115 0.0663254187102965
0.0981820670001307 -0.0166069434675379 -0.0430407400278599
0.013853533769401 0.840171811775532 0.118442121617732
0.0196197729575503 -0.244210745276108 -0.0724113937593018
-0.23691947319103 0.159434053969681 -0.0899075834972159
-0.828663234235257 -0.256070902235277 0.0560505036454551
-0.198252516326234 0.117856194585078 0.00553010960572
-0.0251715527561054 0.0113502229955536 -0.11954892168413
-0.272543803042698 0.240236295076906 -0.0923801438441715
-0.0800567716762054 0.16811539493222 0.0109440239097225
-0.0885827849008239 0.0761615926773784 -0.0517628654405011
0.0737972389076321 -0.0895344329018553 -0.00932687948257663
-0.0224457944543796 0.0243955434439428 -0.0956789460017085
0.000422976070587002 -0.435098635851859 0.0595659980349774
0.00147287183954499 0.185092431066452 0.092320785434691
-0.0668623041905212 0.00182421425249393 0.0512862193620282
0.0868299331595863 0.0616402342038139 -0.0416032476646561
-0.422200605320018 -0.0290044859432566 -0.00611576398910053
0.555659353000263 0.0220886463406558 0.00152841335549531
-0.143184193828578 0.175655071205024 0.00705336032911971
0.00179375512834826 0.739135815466984 0.121541377829777
-0.0124852971125031 0.295611202157377 0.0964298068580719
-0.190329893086171 0.0763083442250114 -0.0287105777771812
-0.183465636371432 0.00276315712477671 -0.0217034629539729
0.0414043732609508 -0.789918492736071 0.0218048825192378
-0.0804966797385052 -0.0753696743063829 -0.00477725090530569
0.0298687262436778 0.0919323284904972 -0.0720739004743638
-0.00815525850594883 0.925057875090744 0.00638088515558021
-0.0243398341428906 0.883541698244862 0.108539657522683
0.0754072862512737 0.312296981107408 0.00664245434407767
-0.398837214680655 0.0165611444503475 0.0134681134019064
-0.266482279819377 0.136395653944934 -0.0117291595072511
-0.719984782660558 -0.198823355534467 0.0111878836142485
-0.0323293169359338 -0.793044757566688 0.0177977391279074
-0.523620635304671 -0.0715507705568215 0.0145808609650709
0.0573266623097676 -0.504108149224163 0.0214665734131978
0.329507524760403 0.0155308666183295 0.00638068219413788
-0.0477256941559795 0.881689467298103 0.0893779328620982
0.0395353037185231 0.459100302283818 0.0962817189592334
-0.116410860230916 0.0688386225909302 -0.013199108941092
-0.0168662356409282 -0.405147353157222 -0.0795547938091618
0.524243303682433 0.047288099549616 -0.07276243367312
-0.0388310258755173 0.0516285636488903 0.076694684452003
0.140369902664686 0.0300013833710764 -0.0363288838758449
-0.281452244502011 0.0856278839281347 -0.0135518788828109
-0.013807102328284 0.714514752490283 0.117424643138888
0.000953424463512645 0.0376662771852475 -0.0749256873419233
-0.0101318882834814 -0.822891133871788 0.10369909466246
-0.0887714610776773 0.22065511549982 -0.0324752039889208
0.109472121816512 0.21332917274217 -0.0244867320457837
-0.049403394306255 0.0239062626792443 0.0688550368857469
-0.0865747817158325 0.0382034713594783 -0.0604652348439821
0.0787217515948395 0.159362975664287 0.00718114777243627
0.077599881391382 0.606806284265173 0.0230456089211485
0.357824872644996 0.0648548568371738 0.00616273340581318
-0.287713801203949 0.226790826045053 -0.023575073810771
0.00869065300339745 0.274220583016807 -0.0580195264213953
0.000879693634198223 -0.736995000242961 0.110102850692242
-0.0764042269677874 0.659373341734983 0.0346353793012274
-0.00350158501790901 -0.00717775896251558 -0.0452731143254285
-0.00490935179766798 -0.635300032426759 0.0770544653481825
0.263400902376381 0.022070394958211 -0.00109029144175475
-4.72455853526787e-05 -0.818930841399274 0.185864923114337
-0.231923526262524 0.141826429239253 -0.0548649605697012
0.218833909388396 0.23804427186704 -0.0628321278493211
0.110724074791838 -0.864861402215838 0.0197328790500755
0.0163687173380793 -0.504462761267038 -0.0689224463513465
-0.0816235219761501 -0.317043386048236 0.0079991992874227
0.0637640728838227 0.740755390625425 0.093478710572517
0.13707570990229 0.0558304857104744 -0.0905807996243702
0.0610680956556691 0.566233877105876 0.0865366629184539
-0.367170888060756 0.0257911410942298 -0.00850366598338134
0.0518117195743477 -0.278610168047304 -0.0526458003700359
0.0417840250904279 -0.261873118545757 -0.0606521549287566
0.0141872057554956 -0.811820328751142 0.0213039113135285
0.0873679955580342 0.19474734387421 -0.0187708034010981
-0.0478364203133963 0.758117453159606 -0.00715367885900083
-0.48555442386061 -0.134116062271142 -0.00333516635679884
0.0308156204216607 -0.167264848479757 0.00350620410684341
0.0746483279822331 -0.146684271307691 0.0106162131204772
0.0720474225685655 0.284534866686942 -0.020676939919679
0.811725271696725 -0.255463824301595 0.0456948159995799
0.448348078689452 -0.0515789037127391 0.0108006609212415
-0.0701934394808406 -0.390857271922275 0.0290922163149784
-0.0814419293473765 0.0535490869841639 0.0166752313232835
0.248635853302777 0.195096460555012 -0.0141039359330339
0.0559965265838676 -0.443158094005682 0.029446298208873
0.0164486712021915 0.344222879483147 -0.0431082876041199
-0.0713785841698558 0.795834071942246 0.0291933552505469
0.33636655602655 0.0804748808868199 -0.00181778014852918
0.0677653874590323 0.859713932524987 0.0321372083835398
-0.332626175201248 -0.0905583919009398 -0.0174633111359575
0.501473634273399 0.0279358672697796 -0.0162983416341035
0.0101511139955003 -0.0431548739029712 -0.112471954986637
-0.0480293136552316 0.2701158796224 -0.0325454593670759
0.00628183293283212 -0.866575078553746 0.0217845926932927
-0.576884146523586 0.0452168003276089 -0.0590086032494625
-0.00788179585195395 0.794500533445079 -0.0197227939068442
0.0461941297400229 0.563308854839765 -0.0203697212813821
-0.262854157787462 0.0646152636957226 -0.0315670436482677
-0.685373808757536 -0.128935987784913 0.0158015175965723
0.239502530455366 -0.893150648812672 0.0304405624550126
-0.231748328891941 0.241138011422941 -0.0616564957462296
-0.0597061407414036 -0.278746169528154 -0.0534937409303354
0.0572837480957171 -0.32546131240053 0.0373207353677286
0.161563622818523 0.0098207748221224 -0.115577455280223
-0.537541843822592 -0.0812765646288246 -0.014219015841429
-0.0799904986474607 -0.187973729669366 0.0183138080559764
-0.0619767996325743 0.611279145101566 0.0840943126770435
0.537568484699937 -0.164964470125881 0.00144592519566979
0.0971626885395076 0.180333346081967 -0.0413097107180883
0.210489378966249 -0.870245446152952 0.0274020872145845
0.0657075266092457 -0.745890748844948 0.0181128092281268
0.246823717601049 0.137190470775819 -0.0353010556640373
0.0323583879472397 0.699709997473388 -0.0222128537468352
0.0149973251048227 0.629989594776898 -0.0289422181165833
0.569961822966395 -0.0486319279254849 -0.0592413474498194
0.0599078036124331 -0.072094311499631 0.00777914947379291
0.0254419443365701 0.0732761045952413 -0.0476151831856958
-0.54268218653984 -0.126948288701878 0.00778069156444649
0.0446354553728325 -0.568677519881765 0.0296248722165732
-0.0230591706290727 0.197882869178137 -0.0165074432986164
-0.168087141657197 -0.0345269259454859 -0.0293490565174025
0.0715324892424285 0.664964472901816 0.0781839435624441
0.171034125789884 -0.892649340763037 0.0262236971734066
0.180169839269551 0.0951960585439912 -0.0287635508133234
-0.0106431043142808 -0.0412972375115437 0.0108112967407667
-0.238187915604028 0.0662408364542024 -0.019839170449983
-0.0121908497710631 -0.470342834400705 -0.0759729936474387
0.521430758195873 -0.0850641130385919 -0.0481419807956478
0.0814264579206261 0.04855680927224 -0.0071125107515107
-0.0509998756671414 -0.808861188410784 0.0118065746318816
0.0361517522084204 0.171646784495992 0.08226529813106
0.0735885914858275 -0.204973532768837 0.0106847833207608
-0.181479734147276 0.161805112533073 -0.0135433299954008
0.0564135625501909 -0.00376434839562481 0.0581458715291748
0.219190323794613 0.173543177564345 -0.0436327816488422
-0.389021737922393 -0.103653597945531 -0.0134587446157065
-0.0751451087835497 0.312077984234274 0.0513603689829336
0.241893511820053 0.137626138509236 -0.0899535513854871
-0.683868141342945 -0.157990392046362 0.0103657469383363
0.0237656481450942 -0.0834787218284951 0.0740049667178161
-0.0223010240540704 0.457192684621165 -0.036239230563676
-0.0626093480906769 0.170324723299497 0.0643536447134006
-0.439647091829146 -0.0420331727149244 0.00895541531089441
-0.0808386451985787 -0.406678981575657 -0.0222531748985581
0.192432467429192 0.134521147737953 0.00884285111766857
-0.0803629668025172 -0.120403909813393 0.0179909034959607
-0.013022147364144 -0.774424095212927 0.0755831727304459
-0.0160027534514154 0.139379066204511 0.0878619297867764
0.0737947978717018 -0.060010440819383 -0.0681553963332117
0.0298671469053968 -0.675804958321474 0.0336065676289668
-0.0387464614560523 -0.436742213205418 0.0528620277688163
-0.0576196633724579 0.553449634301733 0.0876213715456723
-0.422003426909384 -0.11635001021934 -0.0107411964673142
0.20131187307536 -0.0143010764238025 -0.0168384369187391
0.00750808168308272 -0.146927837191258 -0.0724178487251882
-0.0788342082579441 0.579092605736733 0.0391915749191588
0.0605766343659651 0.30073245440225 0.0710058822184729
-0.00940927714893761 -0.72928780536917 0.152628893623617
-0.0621842747047541 -0.133768727432952 0.0519390742215042
0.0450450885284515 0.637942895228514 -0.0175050189330441
-0.00955951725742666 0.371156461150969 0.100797014756814
-0.0937405315066573 -0.851852866170639 0.0164021792494323
0.110191021239534 0.130559010459628 -0.0412501002139442
-0.0806410565652964 0.194576554945384 0.0233535042343011
-0.0148850899177274 0.400166990797842 -0.0406233684326253
6.65971384531736e-05 -0.782408236816737 0.115917643722341
0.0746448864772864 0.136779878058998 0.03398616393291
-0.0141464230704004 -0.753665866022201 0.145640030531818
-0.239942410249054 -0.904259966192147 0.0310372200600776
0.0714041646347887 -0.821409596444041 0.0153095838517353
-0.569483300178782 -0.081871579230648 0.00497665876169941
-0.10782639606115 0.130760731565412 -0.00296785368719369
-0.0796378580783518 -0.212887204568112 -0.0223965469670216
-0.0511529910475914 -0.650698129614169 -0.0161970517007644
-0.0755936839659457 0.438467409966144 0.0126680642767791
-0.00131189622640595 -0.276835439399691 -0.0647277443974372
0.161424820466355 0.0529381722841245 -0.112607866923099
-0.132655111849443 0.150982746541135 -0.0363542821818053
-0.0764644171928822 -0.168318252314325 -0.029216651067844
0.0038262343942708 0.844643837268783 -0.00101081620812964
-0.500018152534815 0.0220598886262678 -0.0303629472336803
-0.0802086366452317 -0.752286014813502 0.0162243245752559
-0.0696714024612833 0.0749916090135486 -0.0706449032969352
-0.180923229243549 -0.827362538865843 0.0329543387406186
0.512536792924406 -0.0607184801705018 -0.0213374785245347
0.482391013891851 -0.115617127022193 0.00402860671488734
-0.079161220666041 -0.0496411060047184 0.0250809100268809
-0.0525691573589579 0.720097899028111 0.100203662779566
0.529635707948982 -0.0728119285235435 0.000837624900582102
0.551701630400149 -0.136860294935657 0.00246628272799604
0.263825051661508 0.159589398789429 -0.0293645172782563
0.457977037423022 0.00287949468419885 0.00422684180693651
0.0188620441677931 0.559623003331844 0.109058209618149
0.255028372906346 0.221858576323935 -0.0134352105119644
-0.165709817058762 0.0473264388225895 -0.112834242424233
-0.659982795832573 -0.195180136376509 0.010290676914894
0.0601898630690625 0.31497468985018 -0.020496794127138
0.0303308419099506 -0.706676362564722 0.0257948785035139
0.036320110467804 -0.660705546329911 -0.0160658192552097
-0.0021490584886439 -0.882767537757343 0.256688652757778
-0.0425553259378547 -0.214455032212434 -0.00773236050725856
0.00316563232119486 0.214350162380059 0.0935687234670445
0.387096224819646 -0.102371625356303 -0.0302379711898727
-0.188763514506112 0.00272897587143262 -0.0949551204568035
0.156026034019217 0.0292081960791952 -0.0545436863707852
0.0791275392944708 0.0993901588939961 0.00280504490916622
0.543627874299812 -0.0657172996125049 -0.017568491512865
0.0030100995719271 0.97385706635718 0.0796771020479585
-0.469706721477755 -0.0462553404808212 -0.00248380235226377
0.075594254242578 -0.0127624793531032 0.0172978352425471
-0.0767706239148292 -0.265961658802511 0.0261646486625366
0.128457229628457 0.189081378372185 -0.027227255638049
0.23121241216012 0.254455346540569 -0.0421437726176872
0.00177611134684355 -0.00399419823738357 -0.0732728292559573
0.698109115176645 -0.181340709661328 0.0231682948826713
0.00545517616854896 -0.378411439465986 -0.080453211822397
-0.601991867901931 -0.182289245167158 0.00405833340929939
-0.536512750285736 -0.0605833575237365 -0.0654903055287221
0.0291521115001384 -0.24265436374998 -0.0151895576960067
0.0102367391577788 0.106215168121342 0.0287412701021851
-0.521215651715194 0.0640412967906169 -0.0578100963941329
0.0931557400423811 -0.764048113649197 0.0271572485526211
0.621442291037748 -0.115890305259277 0.00975668647564562
0.00983611309841738 -0.796438677363134 -0.00426320415277574
0.242274940454436 0.142098542065367 -0.00338137479584619
0.0315998411742274 0.416319686337305 -0.0363876857030513
-0.0487130373434968 -0.0998793526245949 0.00772377158423445
-0.0196622249979438 0.863292225872656 -0.00629618070447617
0.0561063799300894 0.0357226201437501 0.0609802203465095
0.0188689966371397 -0.3304462932746 -0.0769192061241195
0.0329708023879431 0.0631268004337027 0.0781405488526048
-0.176662067180915 0.0757077802384744 -0.110093325297289
0.499602078975862 0.00880815048713239 -0.0569591409431566
-0.218904980965878 -0.0164685503806992 -0.0262837617586279
-0.172084950301739 0.0341248785607921 -0.0930888015127615
-0.292984102784854 0.0649144289506783 0.00843631650565358
0.253457276786089 0.197563456645075 -0.0986964911367052
0.322755443742386 -0.0420701791856226 -0.0113390995544374
-0.0136564760061292 -0.800785130207465 0.175523636313475
0.0717767302485143 -0.345576712164725 -0.0241525300461516
0.0393931111653912 -0.85195846591942 0.0134195231237013
0.381078648847229 0.0475478410495756 -0.00186451505578733
-0.010243249190205 -0.868729538632891 0.197715980633576
0.0716228727796448 0.805507512699031 0.082363835352245
0.131125085742176 0.00205601253729297 -0.0374155904064619
0.0515251962359488 0.608839288064069 0.0973168590089093
0.684943282651536 -0.232554254398699 0.00880005945329031
0.329473253154103 -0.00140650837564347 -0.0123436959736556
-0.283860949748289 0.0331036843429728 0.00183810802344166
-0.387121013192699 -0.0252882128600872 0.00519454951460985
0.437302449342966 -0.105752445555416 -0.001110654562773
0.522661107663897 -0.101862259699188 0.00145293738107296
0.0992101463538932 0.132631580535133 -0.00295321413180929
-0.0707723692302004 0.345959578582876 0.0606129801384605
0.0829357119359675 -0.00845154493640007 -0.0599866114488219
0.319062242519593 -0.09342660016589 -0.0181286575537114
-0.192895557437819 0.105930171655602 -0.0266133123893549
0.316816880713065 0.0245587758749604 -0.0122504950128398
-0.621350822560468 -0.161000719440514 0.00508280786711819
0.0199537861801185 0.97775554024541 0.0304349657674703
-0.398913344877705 -0.0782081895108362 -0.0191961591408388
-0.047352380462506 -0.303629944613538 0.0544503442919294
0.240808661886855 -0.000772121825118811 -0.00823447352696826
-0.091383824093463 0.0575367416592676 -0.0326463182416872
-0.188529189104199 0.0213358985511194 -0.0292299916779401
-0.082311669659434 0.0246059661286804 0.01202930063348
0.075608828804911 0.254421640135052 0.0392521725570986
-0.263082828664318 0.164411913539378 -0.00926034477521908
0.0819891837269746 0.681282387982483 0.0450524873934647
-0.0797079655325568 -0.0775241912314044 0.0219662536586278
0.649103858533248 -0.118902744499229 0.0142903487389279
0.575764171182386 -0.189163112115575 0.00205891784578478
-0.0142534710935093 0.717268612528525 -0.0238926555538599
-0.158561779606501 0.0293460691309169 -0.0490294260203607
-0.640139787727079 -0.126529094383034 0.00843041146736028
-0.55920076183427 -0.0185260194120557 -0.0783168149109887
-0.0663762649300051 0.837664631415328 0.0346970355093869
0.113838767275275 0.0759656768923916 -0.011209801965172
-0.164602527752248 0.00343092051004576 -0.104284478891549
-0.0288736107245997 -0.827954890004234 0.016904795807229
-0.511557167390659 -0.0507917519974613 -0.0324006161438891
0.108956956332275 0.208274618875652 0.00239584131939707
0.0469364653071797 0.732625707491996 -0.0118115704385836
-0.334109373470622 0.0398010918418106 0.00930864630494155
0.191488530747343 0.0423857019178942 -0.00738106673744944
0.0212747556568542 -0.440703071507032 -0.0757957679444629
-0.258370985469874 0.104809414992669 -0.0710059618318207
-0.611774371349262 -0.105499873050179 0.020645871869936
-0.028537942467245 0.0570436238712855 -0.040198174071254
-0.549593665190458 -0.0423198693404491 -0.00432605400355137
0.0374444112909184 -0.408652590046785 0.0486772242058111
-0.136637969184317 -0.0260489582074259 -0.0326408509829628
-0.0777848500758328 -0.0277673898103152 0.00398737428497378
0.198580176268654 0.00967199993655295 -0.0131367823728904
-0.0735773117980294 0.620477278963379 0.0183677073260953
0.530297934220848 -0.0150771027520405 -0.080944021044575
0.0867682577566035 0.0318769249474943 -0.0425693942670631
0.281385940598331 0.251374770232804 -0.0223453706955103
-0.512590994078197 0.0429249427186242 -0.00799092065475699
-0.0449954466116794 -0.603175153834672 -0.0379850121280551
-0.0188269439201112 0.0174918316180174 0.0811626012343276
-0.0288647642099762 -0.697657557894622 0.0404223587519055
0.215131831442435 0.0494334153612959 -0.00286020714428178
-0.0844952079642719 -0.342477261241371 -0.0058711342790649
0.459392716976847 -0.0721345341818073 -0.00323112874079857
0.346787696153118 -0.0615126205717263 -0.0137313257174087
0.0420977456637835 -0.284496204664077 0.0530915019400329
-0.0776033579855231 -0.441873539009669 -0.0313066462589276
-0.0265102937815196 -0.129766356154947 0.00619861346200056
-0.0494070112470045 -0.0732389974484963 -0.0772467137227977
-0.0435962451766194 0.516383222598704 -0.0232865022305666
0.0235970942700929 -0.554793277213365 0.0474390538603011
-0.0290083954208783 -0.0145351598806986 -0.0478926587430894
-0.0153661909847987 -0.749679061823572 -0.0214116945670775
0.67568337712962 -0.140020660187802 0.022314196204789
-0.0163514451573024 0.939161161886052 0.0974058977946644
-0.299937577417966 0.180125953100146 -0.0683526579808137
-0.0875453386548998 -0.807224544478752 0.0235938402880937
0.0129033768708722 0.0397753335797849 0.0150477878464704
0.219473835745313 0.134095435710496 -0.0120125591384626
0.0778457444820668 0.332141433090753 0.0183979018871283
0.0525195595718769 -0.602949170791779 0.00102341517535313
-0.0529398984555766 -0.129959538246812 -0.0733079520496126
-0.17553273542408 -0.884002180792606 0.0251147189290248
0.0768184992329189 0.79242912812011 0.0292046901130308
0.071439736297974 -0.159076052421688 -0.0217555172198441
0.600294769441131 -0.162606882005682 0.0126770952514642
-0.0235521194576513 0.96794661807295 0.0713968531806752
-0.00990717458054508 -0.816023982729025 0.0805359096713118
-0.0403746087044178 -0.172125403477397 -0.0653293421885217
0.188576608432259 0.153680150510999 -0.0126630570619036
-0.0158744577501415 -0.753616064218143 0.00765616873658467
0.0328819944351884 0.300717096130889 -0.0395371809932372
0.0672149855601652 0.209694627637924 -0.00978128277356669
-0.0252365921184581 -0.552553697766413 -0.0600579017133589
-0.546336961618229 -0.150922438055322 -0.0190572715830264
0.0643394492473094 0.481305350125675 0.0768652333110115
0.056646909245536 -0.207693100513493 -0.0477861018970227
-0.130914750258809 0.200752603955447 0.00174381860409877
-0.52796888634689 0.00596565962808068 -0.0802193688092447
-0.260928445639263 0.241930004340787 -0.0697281685790891
-0.265763246707138 0.145167515724918 -0.0353865728970611
-0.430054382381919 -0.00692331740168503 0.0133703727675958
-0.0674833656070521 0.410564564127619 0.0679180672652762
0.40293873268295 0.00840583972109158 0.0147018082446973
-0.071957541122337 0.258975626134909 -0.0545056433944672
-0.0348883665029874 0.109005072835409 0.0818690419620242
-0.0718406926552449 -0.508256691006954 0.0175869455420094
-0.282799644206143 -0.0307635219341058 -0.0105586365858216
0.476798624806476 -0.0364010278241222 0.0166903645770158
0.0756081474677294 0.368706111576775 0.00876633156784872
-0.0680211412320695 0.327274296703481 -0.0105656689467102
-0.0152820107333076 -0.661845180996936 0.0690845196775949
-0.0234742739703585 -0.0305674763412791 -0.106715697107651
0.0716453264736388 -0.207547708872823 -0.0217918292408669
-0.0546841829827273 -0.222890454586341 -0.057873263462419
0.161904498348062 0.0477285134742514 -0.0462055281976105
0.0644573869642859 -0.383914840730386 0.0233428087985228
-0.540638289428723 0.0191762873970308 0.00422193707537726
-0.0686595257893926 0.823357047426832 0.0696141152879152
0.0966696841703218 0.238536177568251 -0.00961800570445467
0.0787407288866669 0.287411963313273 0.0275439997075702
0.0401898806501081 -0.298169293319268 -0.0652732506120546
0.0587906686777499 0.0544143304590541 -0.0729057313422989
0.133350098933383 -0.0323103557242634 -0.0386731593477715
-0.227900559135294 0.132658853248735 -0.00479255013290167
0.0458061273015695 0.927649504600864 0.0294654037387006
-0.471520394194504 -0.103926926693196 -0.00534085660886265
-0.0784060097552638 -0.238855229540372 0.0245793314042129
-0.0414299792323016 -0.413949158603014 -0.0721259768325709
-0.021390757851653 -0.166865126381631 0.00347589193189774
-0.0406676626490238 0.0875491216488966 -0.0723838640227202
0.0823192488756976 0.765950943077696 0.0483503859799129
0.00626272360317231 0.0647914741326439 0.0850598759949308
0.559526322269238 0.0212822036356177 -0.0747265370597813
-0.550350928905447 0.0695917744946903 -0.00799312719383212
-0.241655180906223 0.146962573995587 -0.00425479764823112
0.146599140647544 -0.807184915622051 0.0319315283214325
0.0223133900025606 -0.304549544610389 -0.0749744511352005
0.0691149771977276 -0.122251953649433 0.0334754916948682
0.0519210546384128 -0.0782393243556657 -0.0765218063204634
-0.0443712145112204 0.666407211799705 -0.0144156123795739
0.015675750080013 -0.296533027288699 0.0641528061341414
0.0515652260653015 -0.15815328083367 -0.0668733157101045
0.0184308178206746 0.782856219273047 -0.0201055590802968
-0.137027867632713 0.0509440422791732 -0.124693645754607
0.0205946212394564 0.0835858743642807 0.00611208406205834
0.0371558624637513 0.120016893343904 0.0181242314228374
0.0853536254061462 0.0911415371660809 -0.0472510858303323
0.177908273829332 0.0420492591596606 -0.126620412023774
-0.261539221578751 0.0405398169717257 -0.0302043962958666
-0.0564525753607733 0.349885662012115 0.0801109793292433
0.742516476374728 -0.191846269290528 0.0159823649984961
-0.512931488443486 -0.123429300490938 0.00368625219490594
-0.140046921823166 0.134723958542797 0.00159584059978112
0.540214093045195 0.0398837090283943 -0.0113639793184739
-0.00486122397102463 -0.248569618291048 -0.0645007672719286
0.0464960668932127 0.54221663680182 0.0966654015330761
-0.227521654620405 -0.867008452957685 0.0270100012485287
0.0131404350428889 0.385153898470583 0.100827314045244
0.0499635116529062 0.094959070730312 0.0367547721383755
-0.0529063671151093 0.453477890150291 0.0872392593775088
-0.00156807370872792 0.0152634514071758 -0.0892021993138565
-0.252507645572608 0.258961346012951 -0.0166221151127147
0.588552745117981 -0.113657438447109 0.00676289707245248
-0.222551297986591 0.080546788505352 0.00205239357354611
-0.0185718269448938 -0.276039547616899 0.0663333094853356
0.502301839293499 -0.037463161865509 -0.0262577625312415
0.377027666339364 -0.0161388658616832 -0.00843774596002206
-0.390771717608 -0.0506075641066214 -0.0229488791806776
0.0431746681765203 -0.384491458840779 -0.0656217503953251
0.54502915677507 -0.0382883566901798 0.00154368517081939
-0.276835078166348 0.0942229597248139 0.0104859693378215
-0.055291205976491 0.0568841442198827 0.0158531739932273
-0.055624665696466 -0.0293237042987446 -0.0705581346503442
0.173708421496729 0.0579500805312772 -0.0912260778854927
-0.144918337699313 0.0748080548510327 -0.00842821008648528
-0.0463441609663175 -0.461338166169052 0.0468337145750276
-0.0805854000479223 0.0926709915365888 0.0071457983606078
-0.43240259768852 -0.0674078866138787 0.00389159578482033
-0.0794885940537519 0.259923982283999 0.0301163623862912
-0.714479117509576 -0.221406367945284 0.0126606706654366
0.726906681781922 -0.234225500235107 0.0163467786595589
0.0688296345303761 0.389957783601042 0.065121359582491
-0.00663273758457889 -0.930551799305882 0.241491183559735
0.0769776909547842 -0.00812584578783569 -0.0352327542162126
-0.0116339158838094 0.0209164457132612 0.0140386843282064
0.141994203801805 0.0971142256784864 -0.00399918315658874
-0.255830237624557 0.0852326729497657 -0.0224502086055331
-0.193569953150811 0.0336603734618612 -0.0106665077107299
0.0385361035152059 -0.682886926540245 -0.00223768319938164
-0.0771480320404259 0.369470969149198 0.0141190145368025
0.251702073271163 -0.0359367376333504 -0.0217570738490843
-0.012951738072255 0.645516763225523 0.114084039988325
-0.056541071609715 0.0276401730194664 0.0143324158506861
0.271410337233712 0.144729626865373 -0.0924166442935533
-0.033477183375538 0.310392984974318 0.0923750057689191
-0.281452968367245 -0.0741191564014991 -0.0217357768781642
-0.0817806215503848 -0.30965112555797 -0.0205039790365438
0.0712266209992625 0.184576346244773 0.000335399140888717
-0.042811830931944 0.932882218997927 0.0424912234273808
0.00563505788629459 0.0740879336136255 -0.0730294816706196
0.578376943443654 0.0184438514959574 -0.052413779554938
0.107280250360474 -0.803010186960231 0.0179375114858861
0.285984207323158 0.163545400826002 -0.0295334677128617
-0.0773126785145457 0.0700651764138465 0.0361881813696063
0.523169753345719 -0.0232263044769932 -0.00187278447490032
-0.0802231335131699 -0.367281933907143 0.0131241834026206
-0.051309797841242 0.757874648302122 0.102779925167931
0.0728059279206203 -0.302182678030166 0.00628940901299041
-0.0675527952725114 0.270425477983861 0.0618199180941218
0.0227027852866639 -0.203435912334632 -0.0641060214272928
0.289923834422649 0.147352879618837 -0.0766033716459746
-0.0106491016259214 0.527698766276991 -0.0346135143306072
-0.0754611871158872 -0.13123114784339 -0.0283312537702496
0.0732064281679576 -0.107027680410069 -0.0260696118846149
0.0759771624906204 0.638218182499569 0.0161868675875606
0.00221891682479783 0.473195228247695 -0.0392442425067183
-0.0384557908943377 -0.744370817210387 0.0231621353687045
-0.0733584236340989 0.28912902881152 -0.0101606331316384
0.156584745016689 0.0100580865649005 -0.0994147534030257
-0.0570107178196274 -0.641292625095841 0.0155666763836386
-0.0665402692275329 0.145820440289704 0.0578833869757377
-0.0249551553761187 0.962652104936191 0.0314944043729117
0.0141664290496878 0.927950768970672 0.10438373016361
-0.0847998944971577 -0.0758428925795825 -0.0252324746109224
0.0380153676440528 0.802429863662971 0.1132966734854
-0.0372494015217817 -0.190079221845635 -0.00200651244319257
0.568158284415623 0.0638495133322089 -0.0302139512474757
-0.020904354217596 -0.708836792265612 0.0126753464509081
-0.00895657940970495 -0.00522402030076778 -0.0855339266300389
-0.585234378265146 0.0210935063068867 -0.0384411820340543
-0.0444818201435921 0.0836892947115114 0.0747482649519537
-0.500738145719487 0.00144163025516701 -0.0510885119197523
0.064475501824514 0.590515220800225 -0.00284642290653566
-0.0491926275888755 0.8345652243166 0.00433555031243221
0.0179001859087051 -0.749854886698644 0.00994247348108899
-0.539100444940934 -0.164707671612518 -0.00204527939654812
0.0683210380614166 0.510037542058516 0.0731466049012638
0.0251358319980759 0.0384673793253702 0.0802329222876857
-0.331462335622614 0.0795720607871412 -0.00731385097376975
-0.262187612915748 0.215924862598052 -0.0983099735955687
0.0637492143584114 0.333675231844564 0.0686630918783705
0.0779113221794075 0.20889069769348 -0.0415360891746815
