-0.3324 0.39332 0.70814
-0.39024 0.057252 0.39882
0.8449 0.35598 0.2468
0.42712 0.24248 0.20863
-0.31803 -0.20441 -0.31904
0.63481 0.62311 0.33375
-0.34504 -0.10475 0.12304
-0.01928 -0.25172 -0.266
0.73747 -0.041795 -0.4778
-0.46307 -0.19473 -0.39448
-0.24893 -0.084001 -0.084211
0.21544 0.1108 0.22971
-0.24562 0.066176 0.23503
0.66882 0.40841 0.44373
-0.32314 0.21297 0.47585
-0.46477 -0.27734 -0.26718
0.19888 0.13083 0.050643
-0.0082521 0.075956 0.060031
-0.085059 -0.062297 0.19674
-0.097532 -0.16403 -0.12685
-0.67919 -0.28076 -0.48921
0.51671 0.41603 0.29102
0.26227 -0.068862 -0.20772
0.13078 -0.010536 0.084752
0.12968 -0.1291 -0.26881
0.42246 0.23354 0.34249
-0.19386 -0.0017092 0.067674
-0.071398 -0.039653 0.022837
-0.70196 -0.28555 -0.45363
-0.14122 0.1335 0.3587
-0.39407 -0.12101 -0.21086
0.35184 0.18342 0.3102
0.13172 0.089848 0.11969
-0.10049 0.038298 -0.065841
0.49436 0.39941 0.47841
0.5686 -0.10311 -0.45199
0.063253 0.11075 0.012197
0.30029 0.15427 0.10837
0.64365 0.32493 0.30065
-0.27424 0.1569 0.43759
-0.1817 -0.050021 -0.20016
-0.27132 0.29791 0.62653
-0.34397 -0.086408 -0.21635
-0.09048 0.057636 0.19858
-0.55998 -0.29348 -0.48639
0.061818 -0.10121 0.069671
-0.72846 -0.39882 -0.53184
0.26226 0.21994 0.23413
0.11808 0.14422 0.14019
0.53795 0.27269 0.31958
0.0050164 -0.098262 -0.19097
-0.26267 -0.20086 -0.17035
-0.61136 -0.30233 -0.33727
-0.23943 -0.06248 0.1175
0.01675 -0.055311 -0.036564
0.35998 -0.16991 -0.41879
0.38392 -0.068697 -0.26169
-0.19761 -0.018025 0.036201
-0.13106 -0.12225 -0.026963
-0.4651 -0.31006 -0.38781
0.62529 0.45746 0.38102
0.17005 0.040939 0.022852
-0.12215 -0.074627 -0.091919
0.18476 -0.057483 -0.086031
0.44194 -0.10904 -0.40273
0.26394 -0.11737 -0.31513
0.45186 0.31277 0.34682
-0.19663 0.20286 0.4938
0.065945 -0.033528 -0.0095799
0.30711 0.087337 0.20534
0.070368 0.021948 0.14665
-0.28126 0.14142 0.33207
-0.53458 -0.2036 -0.29486
0.071307 -0.19067 -0.2079
-0.13847 -0.042369 0.062789
0.19547 0.095078 0.13814
-0.067083 -0.055938 -0.14771
-0.24167 -0.15712 -0.26743
0.012385 -0.11438 -0.13076
-0.34249 0.13421 0.37267
-0.58893 -0.21437 -0.40647
-0.082665 -0.012705 0.15068
-0.17683 0.19059 0.45117
0.57057 0.35798 0.38907
-0.014884 0.08318 0.020751
0.24269 -0.081237 -0.24652
-0.39326 -0.26732 -0.35114
-0.36735 -0.20857 -0.18482
0.55491 0.51742 0.30518
0.36599 0.2777 0.28545
0.022156 -0.17313 -0.28455
0.21272 0.042282 0.13006
-0.20132 0.0090456 0.17219
0.73977 0.3601 0.31331
0.15545 -0.091997 -0.18725
-0.18663 -0.14003 -0.093973
0.45944 0.20004 0.29686
-0.32072 -0.029925 0.12354
-0.062248 0.0041127 -0.00065772
-0.19283 -0.0084855 -0.095294
-0.16488 -0.17876 -0.18662
0.50647 0.32489 0.29876
-0.38987 -0.15073 -0.3388
0.34482 0.24824 0.19572
0.59125 0.40988 0.479
-0.32193 -0.081712 -0.1658
-0.37193 -0.24273 -0.22107
0.40008 0.14924 0.20515
-0.15331 0.10107 0.27002
-0.23968 0.25098 0.54128
0.15693 0.13561 0.043105
0.48114 0.45177 0.56061
-0.30016 -0.065658 0.056686
0.10161 -0.15659 -0.1182
0.16888 0.16809 0.18053
-0.28938 0.31988 0.66563
-0.062425 0.04297 0.029193
-0.30152 0.093169 0.45229
-0.024573 -0.060577 0.060063
-0.0057156 -0.11186 -0.10647
-0.11818 -0.099338 0.12042
0.084315 0.048724 0.039779
0.38978 -0.1496 -0.39159
0.1393 -0.0479 -0.059754
-0.33385 0.26014 0.57256
-0.62548 -0.42355 -0.41962
0.65253 -0.10342 -0.48116
0.41575 -0.15902 -0.35529
0.54542 -0.077614 -0.36322
-0.55501 -0.36137 -0.41214
0.15485 0.062929 0.046557
-0.45611 -0.15162 -0.25683
-0.70284 -0.38017 -0.43976
-0.0015986 -0.1285 0.021328
0.21286 -0.09 -0.25963
0.034567 0.0021879 0.13019
0.24047 0.14641 0.2546
0.63844 0.53518 0.36536
0.078297 -0.11382 -0.18902
0.020816 0.058303 -0.05694
0.27991 -0.18769 -0.38325
-0.027405 0.014518 0.12711
-0.14227 0.0012988 0.075948
0.66439 0.36479 0.37029
-0.61616 -0.34254 -0.5119
-0.31465 0.10404 0.37064
-0.37472 -0.26872 -0.29347
-0.66797 -0.30802 -0.37883
-0.50987 -0.22064 -0.42828
0.12121 -0.033199 -0.00039386
0.061863 0.11628 0.098995
-0.121 -0.096256 -0.18388
-0.35676 0.11993 0.44411
-0.19094 -0.071924 0.023
-0.098917 0.023022 0.17449
-0.31043 -0.11881 -0.29115
0.25248 0.19027 0.11696
-0.06182 -0.10568 -0.016751
0.082404 -0.18029 -0.26776
-0.30157 -0.13719 -0.1211
-0.54638 -0.25546 -0.28826
0.15056 0.065124 0.17877
0.059361 -0.0804 -0.083774
0.5458 0.39198 0.32265
-0.098225 -0.017582 -0.030952
0.23646 0.083759 0.109
-0.081664 -0.14106 -0.19337
-0.20509 -0.055903 -0.05439
-0.25825 0.039562 0.17686
-0.60845 -0.37288 -0.48216
0.36096 -0.21914 -0.36892
0.015572 0.033972 0.032974
-0.25792 -0.077217 -0.24238
-0.1831 -0.17996 -0.13564
-0.19198 0.10912 0.32774
0.48572 0.27429 0.25558
0.50943 0.32319 0.38477
-0.16727 0.0033099 0.12726
0.35985 -0.10368 -0.32449
0.14472 0.08463 0.18452
0.29428 -0.081459 -0.272
-0.023933 0.0066177 -0.10879
-0.075126 -0.138 -0.076115
-0.22893 0.16819 0.38261
0.016479 -0.19651 -0.218
-0.24289 0.1188 0.29072
0.30418 0.17137 0.28968
-0.10104 0.03671 -0.023551
-0.31592 0.18337 0.43401
-0.25132 -0.038813 -0.16833
-0.28982 -0.077637 0.16171
-0.54505 -0.33543 -0.34579
-0.73574 -0.33094 -0.5129
0.036015 -0.050143 0.06077
-0.30653 -0.18815 -0.15159
-0.23345 0.016072 0.10031
-0.44908 -0.22161 -0.22612
0.042152 -0.24308 -0.27694
-0.08774 -0.030739 0.093921
0.067766 -0.076066 -0.1466
0.28278 -0.17364 -0.40794
0.26491 0.091487 0.087223
0.21514 -0.061317 -0.14602
0.65148 -0.075288 -0.41264
0.014334 -0.099113 -0.028472
-0.15942 0.070907 0.20719
-0.13723 -0.024422 0.14065
0.75468 0.33221 0.25047
-0.27927 -0.21957 -0.24209
-0.08204 -0.0054953 -0.13677
-0.21785 -0.026451 0.087133
0.32046 0.22334 0.298
-0.14241 -0.026745 -0.014715
0.44948 -0.074037 -0.26399
-0.030185 -0.035953 -0.089987
-0.55318 -0.19704 -0.38497
0.35316 -0.074619 -0.20426
0.28829 0.073761 0.14295
-0.17031 -0.1119 -0.21883
-0.21351 -0.12512 -0.035368
-0.35155 0.30258 0.64087
0.13996 -0.084739 -0.12762
-0.060465 -0.064189 0.15893
0.17809 0.1764 0.11072
-0.47238 -0.22272 -0.2383
-0.25765 0.17258 0.45878
0.091648 0.02358 -0.012143
-0.13294 -0.13977 -0.12956
0.1817 0.021185 0.11646
-0.28638 -0.10404 0.093263
0.46547 -0.089095 -0.34916
0.0016741 -0.014834 0.0043857
-0.49112 -0.26558 -0.44165
0.11517 0.066541 -0.016851
-0.62879 -0.24429 -0.45251
0.55407 0.43856 0.53326
0.059051 -0.15639 -0.096544
0.067082 -0.10855 -0.24377
0.61945 0.37797 0.4235
-0.37674 0.09301 0.39275
-0.0060806 -0.22036 -0.32361
0.51725 -0.09193 -0.41346
0.3922 0.26522 0.33169
-0.47913 -0.1564 -0.32645
-0.25148 -0.021137 0.1466
0.47434 0.24832 0.35031
0.2485 0.064631 0.18928
0.5947 0.32014 0.36979
0.48916 0.22959 0.26366
-0.38251 -0.11376 -0.28074
-0.042557 -0.13987 -0.17637
0.28319 0.22783 0.17535
-0.0054626 -0.085 0.048175
-0.25671 -0.15523 -0.083893
0.21297 0.079023 0.046735
0.44555 0.31996 0.2741
0.59326 0.56595 0.32246
0.52641 0.36754 0.43122
0.36666 0.1207 0.23521
0.073265 -0.042266 0.058247
-0.52592 -0.33575 -0.44267
0.092358 0.091419 0.14004
0.048425 -0.087058 -0.020409
0.50035 0.28618 0.37281
0.40911 0.15707 0.27095
0.21769 -0.12228 -0.3139
-0.14577 -0.018438 -0.16342
-0.21282 0.050215 0.16395
0.073974 0.063742 -0.037913
0.059798 0.034754 -0.056305
-0.2652 -0.17253 -0.28341
-0.43632 -0.19234 -0.21274
-0.1403 -0.052944 0.015132
-0.62524 -0.36346 -0.38802
0.32108 -0.23099 -0.41688
0.051598 -0.054233 -0.06086
-0.34689 -0.047458 0.11642
-0.34076 0.060957 0.41203
0.58733 0.47006 0.33529
0.59986 0.38193 0.37566
-0.2004 0.099969 0.25702
-0.288 0.22978 0.5143
-0.23771 -0.059505 -0.0089749
0.36611 0.16879 0.15427
-0.091281 -0.074292 -0.11639
0.57477 0.31784 0.31886
-0.67934 -0.32492 -0.52979
0.11603 -0.094692 -0.22995
-0.15124 -0.074342 0.14291
0.31929 -0.14552 -0.37914
-0.63713 -0.24534 -0.38189
-0.41889 -0.24208 -0.3905
-0.76767 -0.38235 -0.51429
-0.56857 -0.2398 -0.45992
0.19974 0.10396 0.039398
0.33762 0.12004 0.14511
-0.33334 0.13904 0.45088
-0.45564 -0.2471 -0.41713
0.70171 0.33227 0.28565
-0.13838 0.012874 -0.10945
0.53621 0.47158 0.58797
0.6003 -0.075687 -0.38676
-0.054488 -0.11404 -0.13287
0.33247 0.20414 0.147
-0.2393 0.12266 0.32747
-0.50134 -0.30876 -0.30962
-0.38787 -0.21038 -0.37044
-0.041012 -0.20721 -0.28256
-0.25453 0.1487 0.46596
0.046093 0.067952 0.090044
-0.65565 -0.38808 -0.50214
0.21936 -0.0882 -0.19478
-0.090553 -0.071487 0.039747
-0.14531 -0.15321 -0.083989
0.53124 0.47789 0.29617
-0.154 0.032441 0.16691
0.40236 0.27783 0.23539
0.70256 -0.078325 -0.44964
-0.35804 -0.15047 -0.15875
0.30009 -0.069134 -0.22573
-0.27213 0.22298 0.47998
0.26023 0.16955 0.26611
-0.027583 -0.091718 -0.11646
0.78973 0.35874 0.28186
0.2232 0.20584 0.18087
-0.29036 0.28104 0.58875
-0.044297 0.05622 -0.059531
0.0065051 -0.1301 -0.17426
-0.58336 -0.22467 -0.33152
-0.42976 -0.29703 -0.3161
0.35528 -0.10786 -0.3663
0.14215 -0.029099 0.026795
0.034957 -0.10493 0.081932
0.083545 -0.1189 -0.086569
-0.62941 -0.28629 -0.50433
-0.20258 0.031278 0.12944
-0.46273 -0.30933 -0.32457
-0.13231 -0.15433 -0.1685
0.40514 0.20548 0.32623
-0.22143 -0.18546 -0.21721
0.47813 0.46687 0.5904
-0.17161 -0.096464 -0.062798
0.26128 -0.075089 -0.15437
-0.30352 0.14163 0.41092
-0.050104 -0.016203 0.062145
-0.30687 0.34849 0.71306
-0.20446 0.070201 0.20178
0.4169 -0.09595 -0.35159
0.11136 -0.092744 -0.15703
-0.4025 -0.27234 -0.26534
-0.10717 -0.091936 0.021907
-0.28598 0.090339 0.27475
0.58799 0.36244 0.35457
-0.29092 -0.16742 -0.13055
0.02194 -0.064296 0.0026749
0.12922 0.027111 0.13376
-0.17294 -0.064645 -0.0098786
-0.32268 -0.24191 -0.26155
0.1324 0.10165 0.15148
-0.27349 -0.060501 -0.21394
0.58043 0.42339 0.34671
-0.50453 -0.17611 -0.36353
0.35576 -0.091248 -0.29502
0.49428 0.43119 0.52067
0.32087 -0.22846 -0.37811
0.54168 0.39828 0.45832
0.25633 0.14216 0.081784
0.032152 -0.23026 -0.30512
-0.11526 -0.057847 -0.1782
-0.2506 -0.037898 0.04472
0.54291 0.33479 0.35267
0.3008 0.24523 0.22628
-0.51499 -0.30456 -0.45581
-0.025672 -0.011703 -0.043666
-0.31984 -0.22379 -0.19642
0.1056 -0.14709 -0.21877
-0.24634 0.22509 0.48887
-0.10737 0.0069996 0.0073958
0.30605 0.11619 0.25518
-0.14429 0.013195 -0.050643
-0.0059845 -0.036462 0.096504
0.45441 0.20968 0.22715
-0.023727 0.024624 0.083125
-0.23284 0.19643 0.43656
-0.74539 -0.3607 -0.47144
0.11951 -0.11565 -0.11184
0.17143 -0.1109 -0.24143
0.6967 0.3506 0.32719
-0.11118 0.013877 0.11578
0.44299 -0.11034 -0.31614
-0.35956 0.074388 0.3596
-0.43158 -0.13486 -0.30231
0.39007 0.22613 0.18252
0.48499 0.37388 0.29615
0.36446 0.12245 0.18561
0.30351 -0.11065 -0.31307
0.13141 0.047529 0.02217
-0.69315 -0.3566 -0.5376
0.037391 0.0454 0.048426
0.64727 0.3942 0.4038
-0.27168 -0.028128 0.10195
-0.15235 -0.049937 -0.047599
-0.60526 -0.38035 -0.43276
0.18926 0.13221 0.21958
-0.35107 -0.054587 0.068093
-0.096683 -0.091629 0.13806
-0.18614 0.13754 0.33123
0.050604 -0.15263 -0.24463
-0.22986 -0.17827 -0.12546
0.1212 0.15259 0.087634
0.014782 0.0058714 -0.089478
0.083709 -0.00035253 0.12349
0.41085 0.30016 0.28575
0.20538 0.19662 0.15549
-0.66012 -0.38905 -0.43784
-0.30012 -0.096673 -0.26827
-0.028932 -0.037048 0.022406
-0.68873 -0.29755 -0.40499
-0.33803 -0.23856 -0.31364
0.11963 -0.15962 -0.081013
-0.078377 0.0078535 -0.061697
-0.22158 -0.030217 -0.095949
0.19407 0.086123 0.11004
0.036322 -0.1301 -0.2064
-0.28617 -0.074373 -0.124
-0.2384 -0.047927 0.17014
0.25626 -0.10757 -0.27982
-0.27357 0.11191 0.41469
-0.26635 0.17904 0.40071
-0.49404 -0.18732 -0.2635
0.48949 0.33782 0.31825
0.024343 0.08898 -0.017386
-0.20757 -0.14033 -0.24378
-0.2751 -0.030944 0.159
-0.029411 -0.018818 0.050291
0.050843 0.11699 0.047131
0.4035 -0.084521 -0.30747
0.35379 0.1424 0.27853
0.090735 -0.020018 -0.033812
-0.34633 -0.13883 -0.31721
0.14051 0.13001 0.18217
0.18753 -0.095997 -0.21562
0.55286 0.427 0.31733
-0.71863 -0.40324 -0.48572
-0.22745 -0.15093 -0.065251
-0.019839 -0.12625 -0.21948
-0.18892 0.080859 0.22231
-0.25753 -0.12278 -0.27354
0.63459 -0.096951 -0.45389
0.12354 0.11234 0.014977
0.097622 -0.062798 -0.095421
0.11037 0.067671 0.068672
-0.51308 -0.33999 -0.38434
-0.4176 -0.14851 -0.21023
0.047866 -0.23305 -0.23191
-0.66644 -0.25824 -0.42996
0.53602 0.294 0.29827
-0.20843 -0.034769 -0.1838
-0.019913 -0.08746 -0.051165
-0.40422 0.11043 0.37315
0.23871 0.096499 0.1603
-0.72097 -0.32955 -0.43566
-0.43481 -0.29536 -0.36483
0.38608 0.18359 0.16911
-0.12593 -0.054962 0.16365
0.19517 0.029096 0.071046
-0.039736 -0.081696 0.02336
-0.12475 0.078007 0.27083
-0.56668 -0.29819 -0.31319
0.055104 0.06055 0.1266
-0.077627 -0.044726 -0.088944
-0.066667 0.030801 -0.096535
-0.33189 -0.11528 0.078376
-0.18288 -0.043486 0.062431
0.55738 0.32033 0.39739
0.023349 0.010536 -0.015723
-0.31304 0.24901 0.52717
-0.068414 0.00058838 0.089421
0.007425 -0.083008 -0.14214
0.49355 -0.074941 -0.33048
0.79925 0.33675 0.23652
0.62009 0.34861 0.39994
0.60501 0.51912 0.33501
0.63137 0.33938 0.34352
0.1024 0.064336 0.15409
0.058301 -0.19019 -0.29072
-0.011369 -0.18148 -0.25181
-0.58093 -0.34067 -0.35155
0.1762 -0.074246 -0.15501
0.052923 -0.056209 0.026958
-0.072693 0.029686 0.15428
0.38102 -0.20111 -0.3945
-0.35327 -0.11775 -0.16403
-0.20881 -0.018141 -0.14258
-0.42863 -0.18102 -0.37393
-0.028017 -0.12381 -0.065031
0.40373 -0.14322 -0.32633
-0.052221 0.063916 -0.014395
-0.2988 0.082138 0.40596
-0.1157 -0.14001 -0.066934
0.31538 -0.11811 -0.34019
-0.26701 0.14704 0.37226
0.44384 -0.076599 -0.308
0.1354 0.014427 0.0051552
0.35895 0.21861 0.32245
0.49252 -0.08603 -0.38356
0.20436 0.072041 0.18793
0.003497 -0.05993 -0.094827
-0.26065 0.010285 0.13458
0.18833 -0.12445 -0.28603
-0.16482 -0.02107 0.032246
-0.39759 -0.18158 -0.18566
-0.18699 0.16791 0.3907
0.38391 -0.1912 -0.32998
0.26245 0.09893 0.23686
-0.25207 -0.045446 -0.11812
0.11268 -0.17294 -0.099146
0.1158 -0.13197 -0.039258
0.22684 -0.078216 -0.21095
-0.23153 0.038122 0.18634
0.34278 0.26531 0.23639
0.64693 0.582 0.35634
-0.42185 -0.1265 -0.25936
0.49219 0.23062 0.31541
-0.17912 -0.11595 -0.014822
-0.15267 0.011619 0.094862
-0.39292 0.10496 0.41601
-0.15334 0.12345 0.31104
-0.25042 0.073262 0.20513
-0.25612 -0.016141 0.078408
0.31899 -0.19849 -0.43993
-0.10427 -0.0084855 0.062693
0.096333 -0.060238 0.013089
-0.37066 -0.24981 -0.3422
-0.056403 -0.019836 -0.049737
-0.18224 -0.14827 -0.21515
0.60954 -0.10504 -0.46643
-0.65661 -0.36435 -0.52506
0.1685 0.10765 0.17879
-0.29939 -0.15899 -0.30776
0.033729 -0.092263 0.04264
-0.066486 -0.10225 -0.17322
-0.52411 -0.2952 -0.29794
0.35739 -0.1419 -0.3988
-0.21615 -0.082428 -0.04352
0.5314 0.42098 0.49734
-0.28129 -0.054113 -0.17345
-0.56804 -0.33684 -0.48436
-0.11983 0.074932 0.22933
-0.012126 -0.12313 0.056734
0.057509 -0.070513 -0.12004
0.44236 0.27925 0.35688
0.19991 0.11004 0.19046
0.16354 0.16327 0.084037
-0.0023166 -0.05933 0.01475
-0.00075155 -0.25845 -0.2949
-0.35467 -0.20239 -0.34668
0.3363 -0.13883 -0.3608
-0.14146 -0.1729 -0.12882
0.52806 0.3573 0.39199
-0.5005 -0.25823 -0.26532
0.31811 -0.19497 -0.34808
-0.26682 -0.093353 0.13989
0.11601 -0.081318 -0.18568
0.33589 -0.081484 -0.26068
0.047947 -0.096506 -0.11105
0.27821 0.20534 0.27029
-0.27759 0.20292 0.44317
0.23131 0.04986 0.091174
0.20224 0.17334 0.21651
0.30483 0.097156 0.1256
-0.22978 0.16053 0.41671
-0.046286 -0.027575 -0.13242
-0.33272 0.33264 0.68044
-0.14896 -0.020173 0.094022
0.02238 -0.11336 -0.22879
-0.186 -0.023369 -0.054315
0.57876 -0.083602 -0.41608
0.090173 -0.11142 -0.13516
0.15743 -0.10208 -0.27181
-0.24726 -0.20307 -0.21505
-0.68757 -0.35737 -0.4106
-0.5683 -0.36322 -0.45234
-0.25914 -0.19859 -0.25755
0.15544 0.085365 0.010301
-0.15376 -0.090277 0.010596
-0.17148 0.15486 0.36985
-0.33747 -0.097216 -0.2672
-0.51581 -0.19966 -0.38425
-0.19479 -0.035728 0.0024495
-0.30306 -0.22344 -0.2829
0.56221 0.29748 0.32717
-0.21037 -0.11234 -0.072419
0.1833 0.06431 0.051987
0.082988 -0.055263 -0.038786
0.31407 -0.19517 -0.40483
-0.22224 -0.18916 -0.17295
-0.27694 0.25873 0.54796
0.59966 0.3395 0.33283
-0.61051 -0.25939 -0.33529
0.27364 -0.085719 -0.23682
0.51488 0.36393 0.30498
0.44865 0.18317 0.26066
0.026661 0.099955 0.070532
0.17128 0.045117 0.15095
0.24511 0.050931 0.15168
-0.33054 -0.077012 0.14526
-0.28208 0.12316 0.301
0.21934 0.15774 0.078005
-0.0013716 -0.20984 -0.29167
-0.15261 -0.11864 -0.094341
0.41508 0.18167 0.19479
-0.097331 0.026104 0.13111
0.37886 0.25773 0.20761
-0.16478 -0.18746 -0.15927
-0.30531 0.25892 0.5668
-0.10322 -0.11406 -0.15046
0.0063592 0.023555 0.10998
-0.25475 0.097878 0.25097
0.49589 0.29898 0.27308
-0.12946 0.048632 0.18844
0.14772 0.015033 0.1086
0.009167 -0.23546 -0.23599
-0.10366 -0.1272 -0.18529
0.063174 -0.023781 0.094259
0.61358 0.41024 0.38675
-0.019674 -0.094173 -0.023033
-0.31854 -0.1155 0.11686
0.086471 0.13166 0.10986
0.095249 -0.12941 -0.26407
0.40323 -0.18774 -0.37387
0.52618 0.44765 0.54318
-0.20479 0.11854 0.29159
-0.40859 -0.21723 -0.20407
-0.066635 -0.14741 -0.11113
-0.64321 -0.33462 -0.36772
-0.34578 0.1495 0.4144
-0.069257 -0.14509 -0.15192
-0.14547 -0.13127 -0.1909
-0.3128 -0.041231 0.15049
0.018494 -0.072052 0.07211
-0.3181 0.29715 0.61549
-0.41431 -0.25056 -0.23166
0.075673 0.069885 0.084275
0.54159 0.28975 0.37212
0.39717 -0.10399 -0.38176
-0.57967 -0.20782 -0.36579
-0.37232 0.10672 0.34709
0.28447 0.13967 0.27123
-0.012203 0.076604 -0.025997
-0.20179 -0.0015609 0.1214
-0.36772 -0.080421 0.10055
0.4376 0.28765 0.24779
-0.024214 0.015379 0.0092253
-0.23268 0.015242 0.14866
0.6161 0.57658 0.33558
-0.1927 -0.077871 -0.22458
-0.11408 -0.0045914 0.14891
-0.10873 -0.023401 0.029597
-0.14127 0.011123 0.14117
-0.29966 0.14369 0.36864
0.074727 -0.12518 -0.22009
0.08444 0.1343 0.070958
0.1664 0.083641 0.10213
-0.21975 0.14965 0.34855
0.68669 -0.081897 -0.48505
0.084602 -0.14394 -0.070662
0.38026 -0.12564 -0.34673
0.094442 0.12508 0.03105
0.29094 0.18757 0.12181
-0.17498 0.037439 0.17637
-0.53561 -0.18513 -0.33992
-0.1696 -0.15176 -0.11823
-0.24382 -0.10799 -0.05877
0.075778 -0.22305 -0.2484
0.66351 0.32475 0.28211
0.1174 -0.030999 0.058385
0.023321 -0.15986 -0.24687
0.1013 -0.17818 -0.22882
0.15026 0.16829 0.14338
0.45132 0.22004 0.33034
0.5198 0.36185 0.33496
-0.2214 -0.085607 -0.23983
-0.61999 -0.22891 -0.41638
-0.43443 -0.15441 -0.34463
-0.18228 0.015041 0.099951
0.31686 -0.16111 -0.42239
0.0149 -0.016366 0.053404
0.13729 -0.072249 -0.16462
-0.10375 -0.048011 0.13536
0.22451 0.17799 0.23685
0.17897 -0.075889 -0.19628
-0.63922 -0.41772 -0.3919
-0.098712 -0.035873 0.18411
0.089198 -0.072451 -0.1154
-0.3424 0.083924 0.44376
0.58434 0.38188 0.43944
0.077675 -0.061472 -0.064755
0.29007 0.073838 0.17233
-0.056622 -0.055275 -0.11447
0.56662 0.37536 0.36482
-0.15798 0.075931 0.24746
0.23738 -0.068753 -0.17809
0.14724 -0.10783 -0.22083
-0.10695 -0.039079 -0.063549
0.064132 0.0368 0.022819
-0.38939 -0.14918 -0.18195
-0.33011 -0.080995 0.088879
0.3857 -0.09006 -0.31347
0.48078 -0.11052 -0.40904
-0.15447 -0.060485 -0.19898
0.034705 -0.085753 -0.16288
0.66659 0.3373 0.31915
0.19154 -0.057623 -0.12126
-0.19626 -0.17641 -0.17843
-0.18669 -0.14954 -0.066894
0.45633 0.32235 0.31021
0.61409 0.49167 0.35602
0.25378 0.21084 0.14959
-0.22761 -0.057155 0.032078
-0.52426 -0.26786 -0.4607
0.32777 0.096297 0.167
-0.32189 0.31432 0.64753
0.54004 -0.092912 -0.39616
-0.34452 -0.1863 -0.16056
-0.064245 0.038732 0.19552
0.28891 0.20925 0.14246
0.44454 -0.092165 -0.379
-0.57957 -0.2578 -0.3125
0.11205 -0.047534 -0.038492
0.058331 0.012171 -0.023829
-0.25606 0.27033 0.57719
0.31329 0.24518 0.26738
-0.49902 -0.32437 -0.33888
-0.052274 -0.056842 0.068969
0.39598 0.14076 0.23428
0.22324 0.18587 0.11208
0.46625 0.25182 0.23505
-0.63379 -0.39527 -0.41381
0.35848 0.2524 0.31244
-0.65194 -0.39526 -0.46573
0.2531 0.22111 0.19367
-0.24138 0.038635 0.1416
-0.026906 -0.11514 0.04676
0.23825 0.099171 0.19217
-0.30298 0.17499 0.39844
-0.28623 0.13372 0.46511
0.087602 0.091536 -0.011717
-0.016752 -0.17993 -0.28483
0.56832 0.55356 0.30179
-0.45359 -0.17383 -0.23021
-0.22341 -0.14732 -0.097358
-0.40394 -0.13005 -0.31103
0.51027 0.25749 0.34399
0.15704 -0.05723 -0.1123
-0.34243 0.27773 0.60278
0.74303 0.34374 0.2866
-0.46306 -0.1704 -0.36622
-0.65119 -0.27617 -0.36858
-0.61695 -0.33458 -0.35614
-0.23108 0.18908 0.47499
-0.47612 -0.29631 -0.42078
-0.063488 0.0099222 0.050231
-0.13226 0.0015957 -0.016993
0.41578 0.29759 0.32128
-0.035958 -0.12959 -0.10367
-0.61134 -0.4007 -0.39568
-0.35354 -0.16569 -0.33756
0.40901 0.18094 0.30631
-0.31187 -0.069907 -0.20788
-0.20149 0.17461 0.42861
0.53349 0.38718 0.44026
0.49571 0.39748 0.29769
-0.50074 -0.32626 -0.41738
-0.71485 -0.3003 -0.48494
-0.39962 -0.28154 -0.30963
-0.21377 0.13306 0.31792
0.66778 -0.086292 -0.44597
0.55866 0.47121 0.32795
-0.37441 -0.11965 -0.18515
0.55523 0.35546 0.3398
-0.16941 0.0015987 -0.071074
-0.042674 -0.0043214 0.09964
-0.6563 -0.26172 -0.46998
0.18261 0.049502 0.17167
0.049888 -0.20861 -0.20887
0.71192 -0.054848 -0.49554
0.038416 -0.098215 -0.20519
0.029773 -0.11444 0.032733
0.013038 -0.25531 -0.27418
-0.07583 -0.08485 -0.14779
0.0096819 -0.10086 -0.077849
0.021042 0.050264 0.10286
0.013904 -0.098881 0.016812
0.31268 0.24162 0.1916
-0.1558 -0.001038 -0.13605
0.032067 0.026013 -0.07348
-0.093915 -0.040238 0.051288
0.29358 -0.10216 -0.28724
-0.3732 0.13587 0.38924
-0.040227 -0.10788 -0.19532
-0.57391 -0.21801 -0.42918
-0.22989 -0.049439 -0.20383
0.07059 -0.10748 -0.16229
0.11965 -0.067512 -0.12355
0.55754 0.37486 0.41808
0.10864 0.0079452 -0.01782
-0.0743 -0.094503 0.0093212
-0.68469 -0.40104 -0.47561
-0.66226 -0.29912 -0.51474
-0.28212 -0.11124 -0.10627
0.24105 -0.099153 -0.30264
0.071571 -0.13889 -0.25562
0.60786 -0.090302 -0.42472
0.60791 0.35364 0.36833
0.3865 -0.092059 -0.34879
0.33459 0.25375 0.28554
-0.22413 0.084222 0.227
-0.64234 -0.32088 -0.52161
-0.38496 -0.10754 -0.24869
0.025866 -0.071673 -0.11251
0.32716 0.10424 0.22991
-0.35809 0.052727 0.38904
-0.027689 0.033394 -0.090408
-0.10568 -0.007969 0.1034
0.11931 -0.12215 -0.23995
-0.54481 -0.21484 -0.42607
-0.01482 -0.080739 0.017177
0.60003 0.44642 0.35872
-0.10134 -0.14747 -0.16002
-0.22454 -0.085938 -0.017004
0.0011815 0.036019 -0.08034
0.038262 -0.091238 -0.053127
-0.17048 -0.043056 -0.026976
-0.50583 -0.2253 -0.26104
-0.27898 0.06982 0.22266
0.020076 -0.19412 -0.31094
-0.19903 -0.16759 -0.10459
0.52783 0.41724 0.3203
-0.44831 -0.27827 -0.40422
0.015951 -0.036756 0.022539
0.46193 0.34282 0.28047
-0.18521 0.057773 0.17952
0.57544 0.51806 0.32508
0.053322 -0.16944 -0.21298
-0.30602 -0.10138 0.067635
0.56925 0.42383 0.50691
0.37782 0.16544 0.29897
0.28694 0.12431 0.097241
-0.60969 -0.2268 -0.37197
-0.11278 -0.066833 0.11369
-0.47674 -0.15718 -0.28258
0.21792 -0.11389 -0.27403
0.18392 0.089916 0.2029
0.17937 0.073102 0.19101
0.5914 0.37694 0.40972
-0.19758 -0.078629 -0.026293
-0.53244 -0.35001 -0.41362
0.41197 -0.070255 -0.28126
0.10412 0.084142 0.10497
0.059364 0.092643 0.12286
-0.25425 -0.1235 -0.081748
-0.33898 0.3617 0.69319
-0.25122 0.14821 0.34455
0.33067 0.17771 0.13274
0.0092998 -0.030188 -0.093705
-0.30216 -0.032909 0.087733
0.28859 0.23363 0.25005
-0.25888 -0.18334 -0.14137
-0.55213 -0.34131 -0.46686
-0.27537 0.05055 0.20307
-0.6895 -0.33059 -0.40004
0.28404 -0.061774 -0.18615
-0.3395 0.1039 0.35562
0.046387 -0.07535 0.082377
-0.16429 -0.15858 -0.15553
0.63715 0.39924 0.43141
0.34732 -0.2203 -0.41129
-0.58284 -0.36637 -0.39718
-0.44528 -0.25182 -0.2412
0.12635 -0.12365 -0.20739
0.53277 -0.1079 -0.43718
0.50572 0.47884 0.60907
-0.019478 -0.21866 -0.25974
0.25572 0.060303 0.12287
0.19868 0.18929 0.18787
-0.089618 -0.061888 0.16642
0.40799 -0.11622 -0.34029
0.18789 0.077189 0.028417
-0.43089 -0.21091 -0.39297
-0.22231 0.21288 0.47059
-0.18897 -0.089194 -0.001274
0.50784 0.45868 0.57801
0.50985 0.35874 0.41516
-0.25397 -0.026317 0.12568
-0.53762 -0.31663 -0.31913
-0.47333 -0.29645 -0.2933
-0.3185 0.11817 0.46403
0.013809 0.053765 0.075932
-0.062086 -0.066434 0.0039519
0.44123 -0.078643 -0.33138
0.3893 0.28571 0.30509
-0.12949 -0.10671 -0.10866
0.13896 -0.053802 -0.090014
-0.55542 -0.20482 -0.32088
0.55005 0.45722 0.56139
-0.18115 -0.019627 0.095655
0.03558 0.024602 0.0080304
0.10715 -0.10786 -0.19596
0.37204 0.13704 0.26448
-0.26229 0.13106 0.44212
-0.087076 -0.0062201 0.03765
0.63277 0.35055 0.36567
-0.16618 0.0051815 -0.09947
0.10343 0.11791 0.15147
-0.0015442 -0.1295 -0.20622
-0.044124 0.066357 0.015078
-0.26177 -0.056556 0.091339
0.32923 -0.067237 -0.22215
-0.19363 -0.11171 -0.23602
-0.24104 -0.074849 0.14779
0.55444 -0.099488 -0.41886
0.033243 0.10639 0.024215
-0.3194 -0.23687 -0.22959
-0.09853 -0.035296 -0.16161
0.31169 -0.088014 -0.3004
0.35876 0.13765 0.15736
-0.22524 -0.0012533 0.066853
0.13788 0.047274 -0.0057885
0.57099 0.40027 0.3455
-0.10973 0.010572 -0.12349
0.0099243 -0.013302 0.11583
0.4778 0.33214 0.34659
0.34027 0.2264 0.16733
-0.39128 -0.18146 -0.36232
0.35934 -0.067906 -0.24084
-0.11539 0.043999 0.16051
0.11795 0.0038228 0.11385
-0.38782 -0.23988 -0.36763
-0.27588 -0.054609 -0.14163
0.52084 0.44782 0.28884
0.1299 0.087068 -0.0020045
-0.50064 -0.28228 -0.28104
-0.28882 -0.077946 -0.2419
0.69135 0.36221 0.35433
-0.16028 -0.064001 0.033214
-0.097448 -0.085884 -0.16744
-0.28089 -0.21379 -0.19339
0.56109 0.44189 0.33987
-0.156 -0.011159 -0.031223
0.54332 0.45123 0.30103
0.82146 0.35978 0.2683
0.56294 0.39082 0.4587
0.42538 -0.10772 -0.37214
-0.027634 -0.087706 -0.1424
0.21373 0.053116 0.060525
0.52028 0.25725 0.29903
-0.2803 -0.2004 -0.28178
0.21891 0.064949 0.16938
-0.12218 -0.078217 0.14316
-0.020597 -0.13174 -0.15471
0.17977 0.028582 0.043561
-0.63114 -0.36914 -0.42289
0.30996 -0.16556 -0.35769
0.60857 0.32204 0.31395
0.0019073 -0.1117 -0.054663
0.72599 0.34313 0.2712
-0.27966 0.14119 0.41072
-0.22413 0.17921 0.40464
0.083114 0.022755 -0.04398
-0.52092 -0.24217 -0.44871
-0.28572 0.17001 0.41866
-0.25249 0.20514 0.46613
-0.28265 -0.026585 0.12384
-0.29673 0.12124 0.32714
-0.4489 -0.14585 -0.32038
-0.32631 -0.042374 0.078529
0.091907 -0.16086 -0.090047
0.56682 -0.077095 -0.38282
-0.26934 -0.13973 -0.10575
0.50193 0.33903 0.3662
0.47159 0.28444 0.36716
0.61124 0.60641 0.32222
0.1884 0.076053 0.081138
-0.1789 -0.012315 -0.15018
-0.16653 0.11918 0.3454
0.1366 -0.13195 -0.092658
-0.11177 -0.019244 0.12373
-0.12528 -0.0205 0.0056467
-0.29658 0.15469 0.4339
-0.74172 -0.35636 -0.52689
0.33623 -0.10382 -0.31455
-0.042187 0.040094 0.052813
0.24244 0.11888 0.066368
-0.21816 -0.07277 0.010232
-0.33 -0.087527 0.058491
0.015365 -0.060889 0.038006
-0.31712 0.28041 0.58445
0.2931 0.097571 0.23296
0.52117 -0.073047 -0.34451
0.40139 -0.16915 -0.3257
0.16477 0.10057 0.15066
-0.090955 -0.019029 -0.059812
0.29737 -0.21305 -0.38117
0.50409 0.38159 0.43985
-0.31419 0.22035 0.50244
0.58746 0.34707 0.41093
-0.2606 -0.0021568 0.1048
-0.32352 -0.20514 -0.16999
0.10419 0.037674 0.011567
-0.62898 -0.38794 -0.44675
-0.07385 0.051455 -0.0064079
0.24813 0.083126 0.21677
-0.08258 0.048247 -0.045063
0.077296 -0.17375 -0.11357
-0.31655 0.076763 0.38318
0.15755 -0.072246 -0.13726
0.10218 -0.13974 -0.097342
0.13807 -0.097153 -0.24824
-0.29147 -0.10558 0.13004
-0.17364 0.092393 0.25958
0.57257 0.49769 0.311
0.21571 0.14891 0.2376
0.60657 0.39424 0.4519
-0.27953 0.076509 0.25198
0.61687 0.54739 0.33723
-0.66089 -0.26264 -0.3937
-0.078742 0.00091311 0.11134
-0.50433 -0.169 -0.31607
-0.26789 0.28701 0.60759
-0.20804 0.075494 0.24439
0.15712 -0.08656 -0.22248
0.26622 -0.084941 -0.26915
-0.2016 0.15877 0.36955
-0.25973 0.18143 0.42799
-0.16185 -0.034779 0.0061006
-0.22337 -0.11742 -0.25434
-0.035836 -0.026436 0.092547
-0.13178 0.10804 0.28604
0.049794 -0.11929 -0.18008
-0.21927 0.060938 0.22211
0.51755 -0.086496 -0.36971
-0.7464 -0.39607 -0.4933
0.31769 -0.085869 -0.23941
0.24639 0.16734 0.093209
-0.15239 0.055744 0.17812
0.021816 -0.076983 -0.07953
0.11046 -0.083427 -0.13301
0.032265 -0.021761 -0.07753
-0.24518 -0.057805 -0.092373
0.048075 -0.14813 -0.26847
-0.56816 -0.23777 -0.30587
0.1048 0.032121 -0.028832
-0.33053 0.23275 0.52178
-0.22891 0.2339 0.51008
-0.52048 -0.33785 -0.36084
0.088927 -0.096201 -0.10604
0.50332 -0.10356 -0.40225
0.387 -0.20447 -0.35722
-0.5875 -0.35356 -0.48696
-0.12752 -0.013319 0.04916
0.1223 -0.13402 -0.071152
0.63185 0.36903 0.38886
0.37198 -0.13846 -0.3283
-0.22541 -0.060713 -0.02756
-0.5734 -0.31828 -0.33014
0.18299 -0.096096 -0.26567
-0.15304 0.024811 0.12034
0.32847 0.13292 0.2736
0.10083 -0.17402 -0.20575
0.46721 -0.094873 -0.39817
-0.01674 -0.06696 -0.030338
0.38489 -0.12786 -0.37333
0.27125 0.23029 0.21014
0.11308 -0.052181 -0.07003
0.06984 -0.0046145 -0.04403
-0.13217 0.035997 0.14469
-0.41816 -0.27454 -0.37485
-0.31403 0.074518 0.42875
-0.071537 -0.028074 0.066717
-0.36355 -0.05611 0.086885
0.29836 -0.15868 -0.38789
0.48497 0.21931 0.28982
-0.015931 0.057357 -0.060862
0.53049 0.33232 0.31199
-0.17429 0.031759 0.13171
0.31028 0.12274 0.11457
-0.24041 0.14798 0.36954
-0.17414 0.10507 0.28787
0.17501 0.18102 0.14877
0.38456 0.14608 0.18174
0.11248 0.055189 0.043395
0.10049 -0.047322 0.037876
-0.3522 -0.25712 -0.28096
0.38917 0.28952 0.27446
0.038276 -0.042415 0.0090794
0.57198 0.30532 0.37727
-0.33334 0.25579 0.54782
-0.70674 -0.33095 -0.53176
0.07093 -0.21545 -0.27501
0.65282 0.3505 0.33288
-0.04067 -0.0010823 -0.017881
-0.23842 -0.012008 0.096467
-0.30063 -0.10916 -0.12009
0.41504 0.27811 0.34162
0.14426 -0.02005 0.062076
0.76615 0.36254 0.30738
-0.64467 -0.30135 -0.35817
0.076626 0.069352 0.14213
-0.26638 0.2378 0.50936
-0.71875 -0.3678 -0.53916
0.59905 0.42353 0.36639
0.16612 0.0085157 0.08864
-0.23306 -0.029149 0.064591
0.56987 0.33194 0.36512
-0.23769 -0.15698 -0.10925
-0.19744 -0.082653 -0.05264
0.43868 0.1833 0.289
0.46638 -0.092221 -0.30921
-0.41382 -0.12753 -0.23279
0.12712 0.064352 0.16831
-0.065804 -0.12024 -0.19661
0.34908 -0.20871 -0.34613
0.0001427 -0.23353 -0.27738
0.068947 -0.16291 -0.24832
0.27858 -0.097072 -0.31328
-0.27493 -0.13852 -0.28802
-0.26747 0.11356 0.27966
-0.13659 -0.17883 -0.15678
-0.073893 0.013789 -0.11896
0.42126 0.2187 0.19623
0.20628 -0.069038 -0.18362
-0.28186 0.15403 0.35464
-0.32464 -0.13402 -0.13559
-0.19808 -0.16983 -0.20921
0.48982 0.34487 0.29015
0.057524 -0.084623 0.049027
0.11259 0.090565 0.16675
0.21172 0.033416 0.10039
-0.13087 -0.018635 0.11468
0.24018 0.20467 0.22916
0.33178 -0.14506 -0.40194
-0.58183 -0.31783 -0.49793
-0.23784 -0.087477 -0.046006
-0.26959 -0.081497 -0.10121
0.20827 0.084577 0.21036
-0.064767 -0.071311 0.049521
-0.05435 0.015432 0.13088
0.048321 -0.12127 -0.22917
-0.7255 -0.36829 -0.4489
0.38086 -0.081538 -0.28541
0.2236 0.10524 0.052263
0.3481 0.10811 0.2131
0.13732 0.070392 0.067097
-0.025728 -0.11116 -0.039238
-0.63202 -0.27186 -0.34991
-0.067963 0.046546 -0.06846
-0.361 0.071562 0.42856
0.30273 -0.18014 -0.4286
0.046396 -0.13063 -0.24657
0.50104 0.41843 0.49793
0.22628 0.074373 0.20527
0.040502 0.10021 0.095711
0.039074 -0.018214 0.1132
-0.46504 -0.31527 -0.36141
0.19888 0.18895 0.13053
0.09702 0.024939 0.14869
-0.59098 -0.35478 -0.37213
0.073003 -0.16521 -0.06555
-0.076573 -0.025934 -0.030199
-0.11654 -0.027219 -0.042314
-0.11389 -0.058382 0.038014
-0.12206 -0.081245 0.16719
0.14318 -0.11161 -0.19494
-0.23908 -0.09863 -0.25522
-0.33646 0.29034 0.62521
0.42028 -0.075986 -0.30974
-0.010757 -0.093871 -0.16982
-0.37416 0.11298 0.37522
0.2001 0.051866 0.15245
-0.45138 -0.14174 -0.28578
0.7865 0.34325 0.26038
-0.31381 -0.078148 -0.23259
-0.10954 0.0031028 -0.029252
-0.3198 -0.13686 -0.3083
0.0061136 -0.083893 0.033422
-0.027746 -0.19306 -0.30505
-0.2942 0.20826 0.47899
0.082425 -0.091205 -0.20226
0.20519 0.17298 0.094436
-0.2895 0.12413 0.39393
-0.2283 0.09764 0.2843
0.29261 -0.099054 -0.24568
0.27069 0.12279 0.25623
-0.32143 0.15952 0.41202
0.10551 -0.10401 -0.25234
-0.009808 -0.025567 -0.076121
0.070547 -0.062375 0.0080637
-0.13774 -0.058808 0.13937
0.038829 -0.077573 -0.13836
0.36457 0.22999 0.17711
-0.018618 -0.055275 -0.10831
0.32687 -0.079401 -0.27997
-0.14809 -0.10833 -0.20278
0.62087 -0.077732 -0.41005
-0.29496 0.30513 0.63515
-0.34652 -0.096542 -0.1779
0.6525 0.61305 0.35029
-0.036827 -0.0068088 0.076356
-0.010701 -7.4671e-05 -0.025601
-0.16266 -0.0090484 0.055399
0.10481 -0.12299 -0.21704
0.10109 -0.074138 -0.15166
0.48413 0.30662 0.3734
-0.2282 -0.16939 -0.24878
-0.1307 0.0623 0.21013
-0.49337 -0.18733 -0.38906
0.013048 -0.014416 -0.061549
-0.26481 -0.072415 0.16668
-0.22668 -0.064841 -0.22452
0.23976 -0.059359 -0.15548
0.2868 0.096493 0.1069
-0.18318 -0.061919 -0.041864
-0.67495 -0.38236 -0.52168
-0.045291 -0.093814 0.0012832
-0.3751 0.096909 0.43303
0.52574 0.39435 0.47407
-0.29978 -0.022709 0.13792
-0.0092492 -0.019534 -0.1083
-0.31799 0.14432 0.39026
0.3225 0.15105 0.12117
-0.55033 -0.25614 -0.46808
0.17712 0.15642 0.20203
-0.16942 -0.082523 -0.21448
0.14874 0.039628 0.14939
-0.28156 -0.05514 0.17123
-0.37967 -0.26327 -0.25752
0.15135 0.013391 0.025155
0.037537 0.043341 0.11919
-0.52691 -0.24536 -0.27481
-0.34649 -0.24009 -0.21854
0.57461 0.33539 0.33681
-0.16633 -0.15419 -0.19401
-0.089585 -0.049366 0.15505
0.51117 0.27897 0.27501
-0.076569 -0.031175 -0.14902
-0.70654 -0.40021 -0.5186
-0.71926 -0.31212 -0.50738
0.11553 -0.010579 -0.010998
-0.64275 -0.24338 -0.43106
0.16579 0.071704 0.069958
-0.40645 0.093523 0.39223
0.53883 0.31538 0.33652
0.02543 -0.073695 0.036687
0.36684 -0.19421 -0.41489
-0.047575 0.016235 -0.10974
0.3296 -0.17458 -0.33799
-0.4805 -0.24388 -0.25003
-0.59061 -0.37389 -0.45861
0.54498 0.34103 0.38652
0.46886 -0.069667 -0.30509
-0.43708 -0.14226 -0.24265
-0.05958 0.058796 -0.039269
0.15475 -0.12711 -0.27595
0.02559 -0.2471 -0.25163
-0.30201 -0.070205 -0.15485
-0.19784 -0.10687 -0.029471
0.3583 -0.14301 -0.37279
-0.41697 -0.1436 -0.32996
-0.2577 -0.088459 0.11675
0.22846 0.20287 0.14708
-0.16577 0.14208 0.34779
-0.13742 -0.023892 0.028406
0.29163 -0.10344 -0.33421
-0.35062 -0.075234 0.12998
0.070264 -0.07551 -0.025817
-0.30828 0.32624 0.68136
-0.26378 -0.095643 -0.2596
-0.12142 -0.1537 -0.092058
0.0399 -0.03231 0.089655
0.46031 0.27521 0.24236
-0.2252 -0.070283 -0.059321
-0.12462 0.011009 -0.035053
0.56076 0.40992 0.48816
-0.14431 0.078697 0.22477
-0.40652 -0.12113 -0.28256
-0.20426 0.0096959 0.08892
0.16866 0.11689 0.031067
-0.13834 -0.037469 -0.17809
0.42062 0.16679 0.21429
-0.18129 -0.032622 -0.18206
-0.07387 -0.010735 0.060265
-0.0022234 -0.10782 0.066878
-0.54245 -0.31927 -0.47379
-0.0069595 -0.077777 -0.11895
-0.11692 -0.018925 -0.15722
-0.7293 -0.38885 -0.46833
-0.51634 -0.18908 -0.28595
0.35936 -0.071923 -0.26448
-0.02313 -0.12182 -0.12158
-0.34086 -0.1215 0.10076
0.015097 -0.099482 0.047209
-0.4223 -0.23189 -0.21878
-0.2821 0.24204 0.534
0.08898 -0.2039 -0.23988
0.26681 0.061822 0.14604
0.27066 0.070176 0.18727
-0.28513 -0.11666 -0.28245
-0.022126 -0.0095317 0.10135
0.10742 -0.14424 -0.061542
-0.0524 -0.07211 -0.13208
0.20081 0.10216 0.1612
-0.22323 0.0049435 0.13173
0.089041 -0.15702 -0.2218
-0.03018 -0.19659 -0.26316
-0.092842 -0.012192 0.0021656
0.38831 0.1899 0.31727
-0.047671 -0.13325 -0.076469
0.084983 -0.014301 0.10056
0.12547 0.13295 0.16404
0.72765 0.32972 0.25595
-0.30291 -0.18317 -0.31024
0.010425 -0.085707 -0.00078761
-0.14484 -0.0014398 0.11848
-0.18945 -0.0079199 -0.12847
0.011338 0.02198 0.010716
-0.6328 -0.25874 -0.47636
-0.19614 -0.058036 0.042502
0.51086 0.34852 0.38694
0.32755 -0.21554 -0.35744
-0.27248 0.16601 0.37708
0.074203 -0.091035 -0.12901
0.22433 0.20275 0.20506
-0.011229 0.0072708 0.10534
-0.21808 -0.032716 0.0090988
-0.23629 -0.18434 -0.15048
0.058622 -0.083687 -0.16713
-0.095818 0.031809 -0.088853
-0.24488 0.053 0.1675
0.39849 0.16775 0.18369
-0.10509 -0.06975 0.18509
-0.28183 0.26489 0.57266
0.5685 0.29735 0.35066
-0.080124 -0.12146 -0.1521
-0.56298 -0.35824 -0.38576
-0.27036 -0.078712 0.086363
0.015666 0.073043 0.090535
-0.15247 -0.16497 -0.10872
-0.37935 -0.17189 -0.17294
0.044786 -0.20672 -0.30221
-0.38251 0.070501 0.41743
-0.14266 0.092741 0.25293
0.015295 -0.047441 0.073031
-0.53311 -0.19695 -0.40093
0.03688 0.076201 0.11083
-0.0018268 -0.06479 -0.049226
-0.20011 -0.02133 -0.076177
-0.20634 -0.040463 0.067285
-0.11807 -0.10426 0.00426
0.08594 0.06137 0.064171
-0.41531 -0.28967 -0.33396
0.020684 -0.04006 -0.0072288
0.24654 0.090987 0.13822
0.14806 0.064835 0.00016445
0.1427 -0.15824 -0.080211
0.19282 -0.088409 -0.24512
-0.42565 -0.27779 -0.26883
-0.012338 0.084325 -0.0031022
-0.074951 0.02254 0.030645
0.0010226 -0.21412 -0.22865
0.092621 -0.096592 -0.22506
-0.53094 -0.28934 -0.46889
0.53042 0.27027 0.34593
0.11613 -0.047687 0.017931
0.048227 0.089695 -0.017539
-0.52476 -0.18135 -0.31708
0.66371 0.40399 0.4181
-0.42338 -0.1739 -0.20482
0.001373 -0.057927 -0.017705
0.63106 0.55728 0.3528
0.13063 0.15817 0.12549
-0.2614 0.24311 0.53206
-0.093348 0.045743 0.16995
-0.66915 -0.28375 -0.38638
0.383 0.28084 0.24887
-0.5656 -0.20132 -0.34775
-0.10109 -0.065822 0.15232
0.50238 0.45098 0.54999
0.14542 0.1156 0.023631
0.67674 -0.093124 -0.46665
-0.0087647 -0.19758 -0.31743
-0.63527 -0.35526 -0.51792
-0.29911 -0.22981 -0.26039
-0.59685 -0.32566 -0.34256
0.49046 -0.084749 -0.35179
-0.11303 -0.031102 0.16592
0.52829 0.33065 0.37076
-0.53225 -0.18707 -0.3729
-0.58755 -0.23182 -0.44837
-0.10715 -0.024545 0.082027
0.30863 0.08856 0.1472
0.12369 0.022762 -0.013339
-0.36275 0.12671 0.36333
-0.50228 -0.31283 -0.43665
0.20041 -0.071089 -0.16154
0.070791 0.027482 0.0023035
-0.12075 -0.1162 -0.17148
0.13009 -0.068615 -0.14672
0.15473 0.11692 0.19548
-0.26332 0.13108 0.31265
0.58549 0.34308 0.37882
-0.67796 -0.3948 -0.45181
-0.74311 -0.38304 -0.5409
0.10319 -0.041992 -0.017614
-0.064916 -0.043834 0.1484
0.47553 -0.096454 -0.37148
-0.41447 -0.16153 -0.35429
-0.23444 -0.18793 -0.23579
0.58592 0.31937 0.39133
-0.25776 0.013974 0.11766
0.088628 0.12363 0.13158
0.4743 0.22169 0.24761
0.19895 0.047403 0.048922
-0.22762 0.050367 0.20597
-0.45152 -0.2914 -0.28711
0.63256 0.34198 0.3205
-0.28456 0.09272 0.4365
0.084672 -0.13682 -0.10122
-0.2304 -0.030888 -0.16229
0.7169 0.35834 0.3203
0.62185 0.5208 0.35809
0.01277 0.072479 -0.04054
0.39932 -0.13467 -0.3561
0.72594 -0.058754 -0.47117
-0.75395 -0.35584 -0.50734
-0.38956 -0.20726 -0.19085
-0.03834 0.025327 0.14429
0.32412 0.16012 0.29222
-0.30764 0.12428 0.37978
-0.34933 0.13437 0.39463
-0.088953 -0.093382 -0.12897
-0.093208 -0.032986 0.14832
-0.49757 -0.33136 -0.3607
0.37941 -0.15987 -0.32475
0.51481 0.30312 0.28534
0.41782 -0.091499 -0.32957
0.19656 -0.11446 -0.26373
-0.12983 0.010025 0.09505
-0.22166 -0.023346 -0.11778
0.18245 0.029186 0.13945
0.34244 -0.10956 -0.34743
0.0089185 -0.16532 -0.2676
0.43068 0.19473 0.20523
0.048035 -0.10398 0.049916
-0.03249 0.074067 -0.006211
-0.0062739 0.028531 0.02933
0.59818 0.54545 0.33338
-0.086162 -0.006451 0.07639
-0.25199 -0.14037 -0.066602
-0.71933 -0.30968 -0.44668
0.48623 0.31541 0.28555
-0.16819 0.075024 0.23167
0.15167 0.035524 0.0072084
-0.19362 0.12475 0.30872
-0.10039 0.00208 -0.06191
-0.27891 -0.21932 -0.21538
0.071299 0.12616 0.051008
-0.30761 0.1982 0.46364
0.24572 0.063747 0.10101
0.51774 0.43705 0.52495
0.55892 0.38198 0.33957
-0.60095 -0.37351 -0.40882
0.13038 0.11014 0.17814
0.16287 -0.077861 -0.17118
0.044017 -0.085225 0.063433
-0.33757 0.060725 0.38379
-0.61638 -0.42333 -0.39891
-0.29995 -0.023202 0.10803
0.11282 -0.12072 -0.08784
0.01946 -0.0024534 -0.040056
-0.55809 -0.22773 -0.44395
0.41151 0.29395 0.26407
0.34281 0.10403 0.18193
-0.0024727 -0.18419 -0.30043
0.59101 -0.10165 -0.45022
-0.53432 -0.34692 -0.37613
-0.32031 -0.23266 -0.29406
-0.57447 -0.36977 -0.4197
-0.23218 -0.19529 -0.20029
-0.13915 -0.073332 -0.077247
-0.21277 -0.013631 0.10487
-0.2591 0.040521 0.15541
0.43691 0.2056 0.32104
-0.16453 -0.14888 -0.070187
-0.10954 -0.053867 -0.080149
0.61228 0.4325 0.3799
0.25825 -0.067115 -0.1836
-0.16036 -0.031529 0.078495
-0.24891 0.044267 0.19896
-0.085715 -0.036033 -0.070051
-0.21033 -0.17024 -0.22915
-0.2444 0.16846 0.40407
-0.32277 0.33634 0.69999
0.13022 -0.10597 -0.2671
-0.075181 -0.067511 0.14258
0.065454 -0.13817 -0.085513
0.46577 0.20047 0.27558
-0.29469 0.23035 0.49318
-0.22611 -0.11191 -0.042535
0.24881 0.088861 0.072265
0.10416 0.14406 0.11465
0.33409 -0.20296 -0.41495
0.44272 0.31336 0.29528
0.4964 0.24304 0.33319
-0.58912 -0.2453 -0.46594
0.58172 0.39319 0.36998
-0.28954 0.29396 0.61469
-0.18014 -0.028057 0.017983
-0.13793 -0.054878 -0.063174
-0.01131 -0.032571 0.0064372
-0.42143 -0.28856 -0.29751
-0.064282 0.041537 0.17086
0.22207 0.12626 0.058732
-0.1192 0.029369 -0.073259
0.2206 0.079791 0.094266
-0.052682 -0.0069311 -0.12821
-0.053931 0.005265 0.10533
0.19669 0.10695 0.21885
0.32036 0.2537 0.22084
-0.48902 -0.16515 -0.34405
0.45767 0.23141 0.22673
0.183 0.18306 0.17284
0.6567 0.36952 0.39031
-0.66391 -0.32956 -0.37975
-0.4369 -0.16442 -0.21926
-0.13565 -0.069982 -0.19289
-0.12142 -0.017231 -0.018739
-0.042961 -0.06979 0.047865
-0.099658 -0.0040571 0.13246
0.33125 0.097631 0.20391
-0.031962 -0.045701 -0.12273
0.2205 -0.063895 -0.16704
0.75504 0.33937 0.27108
-0.19286 0.031395 0.16898
0.44081 0.27144 0.23338
0.092169 -0.18653 -0.10405
-0.70307 -0.36195 -0.42523
-0.23601 -0.0051342 0.15562
0.030519 -0.075592 0.055258
-0.1849 0.10723 0.2727
0.7058 -0.072019 -0.48191
0.033121 -0.10793 -0.12959
-0.07478 0.022133 0.12763
-0.33209 -0.2468 -0.28053
0.52897 0.31941 0.39351
-0.18528 -0.16993 -0.15479
-0.38953 0.11689 0.35854
-0.30345 0.25888 0.54519
0.035992 0.10018 0.0036182
-0.29252 0.15362 0.38653
-0.2855 -0.18387 -0.29736
0.4242 -0.10067 -0.38967
-0.60513 -0.22096 -0.3937
-0.21269 0.1654 0.39389
-0.25863 0.19384 0.44832
-0.21867 0.060158 0.18225
-0.24663 0.027343 0.12391
-0.34621 0.31088 0.65968
0.41422 0.16892 0.28912
-0.34096 -0.14262 -0.14686
-0.14451 -0.14339 -0.064275
0.046642 -0.072724 -0.10152
-0.70493 -0.38511 -0.53392
0.030708 -0.038635 0.03756
-0.26058 0.083347 0.26578
0.67566 0.33116 0.29871
0.012178 -0.2467 -0.30749
0.20198 -0.088741 -0.19261
0.15041 0.14716 0.060024
0.46175 -0.080137 -0.32636
0.058354 -0.23536 -0.25086
-0.3165 0.15205 0.4481
0.43025 -0.07158 -0.27313
0.30409 -0.16938 -0.40556
-0.10447 0.02589 0.15132
-0.36291 -0.095312 0.116
-0.19705 -0.0592 -0.2118
0.3767 0.20695 0.32456
0.55564 0.32702 0.33039
-0.26866 0.10915 0.30984
0.16333 0.086634 0.19465
0.12524 -0.058966 -0.10545
0.20706 -0.10421 -0.24484
-0.46661 -0.17027 -0.24664
0.66163 0.38976 0.43376
-0.32865 -0.10953 -0.28535
-0.24769 0.10717 0.26873
0.076167 -0.036081 -0.044861
-0.48051 -0.15674 -0.30346
0.55017 0.3038 0.3855
-0.11188 -0.0025219 -0.012757
-0.58577 -0.29347 -0.32114
-0.16082 -0.13009 -0.2055
0.315 -0.084832 -0.2622
-0.13672 -0.085919 0.14669
-0.21919 -0.05123 -0.069477
0.15814 0.16993 0.10819
-0.34953 -0.2527 -0.30296
-0.49666 -0.20683 -0.2559
-0.065826 -0.13471 -0.13388
-0.32103 -0.089291 -0.25662
-0.33474 -0.20738 -0.33157
-0.049668 -0.1382 -0.10265
0.51323 0.39381 0.4544
-0.39538 0.077412 0.40202
-0.17827 0.12007 0.31334
0.084337 -0.20428 -0.2633
0.075595 0.042249 0.14527
0.32153 -0.2101 -0.39208
0.1218 0.034124 0.0030456
-0.39758 -0.26145 -0.24673
-0.16527 0.13234 0.32585
0.052279 -0.07912 -0.0013675
0.29689 0.23151 0.26921
-0.20185 -0.17216 -0.14214
-0.7319 -0.31743 -0.49155
0.19549 -0.11769 -0.30449
-0.13891 0.044893 0.15954
0.17786 -0.065957 -0.10385
0.72749 -0.040928 -0.49639
-0.31876 0.3776 0.70988
0.54717 0.44879 0.32592
0.4306 0.17075 0.27439
-0.032078 -0.016949 -0.1214
0.30618 0.19956 0.13583
0.023478 -0.13232 -0.23744
0.51847 -0.09525 -0.3906
-0.17263 -0.081418 0.009085
0.01076 0.091569 0.059979
0.068909 0.098538 -0.0058487
0.55502 0.4135 0.34417
0.36461 -0.19747 -0.33443
-0.26268 -0.21102 -0.22648
-0.1439 -0.036327 -0.034375
-0.16278 0.015185 0.1437
0.47283 0.35862 0.28832
0.053593 0.030832 0.13828
-0.077467 -0.12541 -0.18029
-0.36284 -0.18109 -0.34781
-0.16438 -0.10671 -0.003603
-0.21551 0.19771 0.4478
-0.56317 -0.26057 -0.30019
0.36013 0.15649 0.29307
-0.19533 -0.12628 -0.075102
0.028536 -0.092272 -0.18151
0.23618 -0.11377 -0.28374
0.37526 -0.11107 -0.37052
-0.53576 -0.27319 -0.28854
0.083278 -0.12374 -0.24791
0.24227 0.10227 0.23401
0.14596 0.082483 0.099492
-0.25891 0.12929 0.34159
-0.060011 -0.0371 -0.08142
0.41178 -0.18048 -0.35658
-0.31056 0.281 0.60514
0.45682 0.23511 0.34325
0.035949 0.079556 -0.03151
-0.54854 -0.27917 -0.47705
-0.0027525 -0.11194 -0.21684
0.0040902 -0.17469 -0.24009
0.47653 0.21678 0.30839
-0.093738 0.0075586 0.097192
0.41981 -0.16189 -0.32695
0.20424 -0.096557 -0.27705
0.082626 -0.11779 -0.10851
-0.28167 -0.21514 -0.26193
0.1879 -0.065501 -0.1398
-0.028462 -0.13874 -0.19116
-0.22999 -0.16088 -0.082939
0.5502 0.42701 0.51684
-0.5712 -0.35176 -0.36798
0.53145 0.35733 0.41427
-0.12262 0.01147 0.13288
-0.29678 -0.22167 -0.20348
-0.1678 -0.020459 -0.16523
-0.25882 -0.046755 -0.18555
-0.23083 -0.13504 -0.26138
0.056338 -0.22589 -0.28459
-0.10923 0.050297 0.18905
-0.20649 0.094502 0.27559
-0.20002 -0.024457 -0.1685
-0.48386 -0.31385 -0.41414
-0.46246 -0.15562 -0.33797
-0.077166 -0.045155 0.17024
-0.22994 0.068733 0.19771
0.070921 0.085301 -0.021345
-0.41482 -0.19079 -0.19769
0.072787 0.10731 0.12653
-0.28723 -0.09254 -0.11199
-0.24792 -0.10433 -0.082828
-0.027913 -0.12738 -0.08492
0.42292 0.26146 0.34989
0.2437 0.19288 0.24514
-0.24339 0.0020948 0.13011
-0.07658 -0.14327 -0.17093
0.071589 -0.16826 -0.086108
-0.25475 0.25842 0.55244
-0.25572 -0.04092 -0.14876
-0.55282 -0.19403 -0.36503
0.069244 0.052735 0.052563
-0.20745 -0.13969 -0.087694
-0.30071 -0.11385 0.10762
0.3278 0.12659 0.12878
0.35094 0.26391 0.29143
0.6138 0.39169 0.39413
-0.58555 -0.3734 -0.43913
0.55122 0.36452 0.35771
-0.033821 0.067198 0.032338
0.54575 0.28111 0.35314
0.28049 -0.098817 -0.27204
0.44927 -0.097357 -0.36016
-0.038982 0.015274 0.07397
0.51616 0.43127 0.30409
0.66834 -0.091355 -0.48393
0.21534 0.095026 0.14094
0.11059 -0.087609 -0.20394
-0.03115 0.070486 -0.028339
0.035561 -0.053504 -0.072863
-0.38537 -0.2521 -0.23388
-0.2167 0.022589 0.15825
-0.41725 -0.19605 -0.38071
0.49782 0.23418 0.28592
-0.26696 -0.013542 0.13399
0.012298 -0.053481 0.019533
-0.14348 0.053336 0.19761
0.20624 -0.090422 -0.21125
0.060922 -0.16017 -0.23021
0.019547 -0.11815 -0.149
0.51918 0.45704 0.55931
0.25195 -0.11662 -0.29922
0.12441 -0.09939 -0.18521
-0.15218 -0.10109 -0.084932
-0.34145 -0.058021 0.13397
-0.23831 -0.040241 -0.18332
0.28835 0.10906 0.24848
-0.14989 -0.14748 -0.1226
-0.096404 -0.066057 -0.16841
0.581 0.34384 0.35374
0.59978 0.5789 0.30885
-0.011537 -0.057983 0.045289
0.12021 -0.039832 0.040812
0.090573 0.11386 0.015114
0.05216 -0.10531 -0.23081
0.14573 0.10437 0.16595
-0.28924 0.10896 0.28911
-0.021012 -0.093306 0.040315
0.082037 -0.1702 -0.20873
-0.31331 -0.11704 0.085119
0.59151 0.4891 0.33167
-0.016353 -0.091571 -0.00367
-0.34354 -0.073516 0.10139
0.22362 0.10205 0.17186
0.0039361 -0.026529 0.020204
-0.48809 -0.17084 -0.27272
-0.66033 -0.2769 -0.49384
0.34965 -0.13743 -0.34626
0.42122 0.1939 0.3149
-0.61226 -0.32321 -0.51345
0.14195 -0.080694 -0.19623
-0.47515 -0.31976 -0.34503
0.34629 0.23684 0.31263
0.11536 -0.11788 -0.051649
-0.25309 -0.073953 0.10417
0.51975 0.28873 0.37538
0.3513 -0.18596 -0.42631
0.017307 -0.12888 0.030286
-0.074607 -0.081815 0.034419
-0.48377 -0.28253 -0.43474
0.40028 -0.0982 -0.33608
0.16929 -0.097639 -0.20838
0.54558 0.4084 0.47572
-0.038789 -0.13487 -0.14788
-0.57861 -0.27744 -0.31174
0.2307 0.068461 0.081747
0.30741 -0.18394 -0.39011
-0.11017 -0.066558 0.13413
-0.1983 0.14972 0.35244
0.31903 0.23849 0.2856
0.47902 0.24065 0.24573
-0.52184 -0.17809 -0.35198
-0.24373 -0.05624 0.009388
0.039664 -0.16642 -0.25548
0.23488 0.072741 0.17766
0.27802 0.10763 0.092133
-0.30744 -0.21016 -0.3036
0.42573 -0.12307 -0.33559
0.59245 0.5077 0.32523
-0.0037011 -0.011299 0.056779
-0.15935 -0.14495 -0.103
0.81405 0.34922 0.23939
0.071958 -0.21 -0.21082
0.34812 0.17635 0.14146
-0.23438 -0.056649 0.15037
-0.30912 0.31624 0.66457
0.22711 -0.080071 -0.23476
0.08173 -0.059284 -0.083746
-0.30518 0.23829 0.50762
-0.13454 0.020691 0.11567
-0.0089003 -0.013887 -0.053401
0.25799 0.077438 0.11382
0.050911 -0.0076102 0.12449
0.22293 0.094403 0.22233
0.53993 0.38494 0.34271
0.04442 0.033587 0.022874
-0.64719 -0.2499 -0.4495
0.40261 -0.084882 -0.29008
0.1818 0.095622 0.027323
-0.12642 -0.089346 0.021272
-0.12336 0.091336 0.2547
0.21641 0.041937 0.14892
0.27762 0.19997 0.12968
-0.57391 -0.35793 -0.47015
-0.090889 -0.14507 -0.084951
-0.05571 -0.096258 -0.15827
-0.10792 -0.10231 -0.16722
-0.0069713 -0.019256 0.10844
0.32524 0.1016 0.14854
0.70778 0.36231 0.33796
0.68135 0.35268 0.34075
0.34356 0.26601 0.27357
0.53096 0.30184 0.38447
0.12969 -0.086068 -0.15385
-0.73684 -0.40449 -0.51537
-0.052474 -0.091381 -0.13358
-0.33992 0.27491 0.58342
