53.9099990068 162.6126373122 77.9312445781
56.2658512419 165.7282519234 126.9747939858
55.6854674101 158.1600919644 74.1603481733
95.5458848280 119.9285224678 126.1525593110
43.5296665053 160.5621169258 78.3503759861
43.8347456621 116.2611159187 116.4857381413
81.5486280214 197.8941909750 78.1029549766
39.4180568967 156.9605148793 77.5667829493
63.1212928615 114.7328172149 126.7556712515
49.8008056173 173.6923693640 77.9770401669
50.1495901213 138.1741311111 77.7846555922
26.5304648335 157.6130994731 77.5224404175
23.8428419483 156.4427368590 77.8879121198
44.6379577380 178.0514927406 77.6519573342
68.1654916946 108.7929329700 126.6711192335
97.7928216514 173.1206669646 78.5391687827
61.4119095041 111.1236978954 119.4902510995
61.8325651201 138.4093728315 78.5656488623
37.9172620811 152.4379538594 131.0055061576
96.1117174701 171.8755227532 78.4171084700
51.0264746236 145.7476854892 138.3296004584
62.8418476360 140.3049520125 78.7195204870
55.0622255491 128.9679969445 137.3709235608
58.3879845242 136.5098049815 78.6788492249
115.5100776634 127.7096173500 116.5925129893
80.7050229093 97.2595296143 126.3568753078
99.7987099605 184.7583611439 78.5582319710
61.6432380620 148.8675157794 78.1294635377
47.3632007927 138.6222688690 78.6445218866
62.5616359667 108.0658584431 116.5384339248
42.4530486301 137.5255483436 78.3635940993
101.8272044282 102.1904063330 132.5409809664
20.7180363700 119.7478446410 78.4585703099
38.5426451767 142.1606335189 78.3589064235
53.6197589991 132.1258267863 138.2275423830
66.9883161730 139.5900479910 138.2137940465
87.2698823912 196.1004235465 78.5998058052
120.4923647268 125.0346163169 116.0618962787
51.5889470409 165.2497032922 78.6171709844
67.8730316456 95.2698435186 116.9023409626
77.9909303217 193.2018333959 79.1394671617
50.1578506599 169.1128873520 78.1360552651
59.9822155896 132.0737697518 138.4353433570
58.5975447130 136.8815173803 81.8656792914
50.2341940397 171.2508254657 78.3484066518
35.9321695658 161.0622337802 119.5995603007
33.0453293041 126.6563675867 99.3052280046
43.4482812386 172.5407485923 78.5104841073
47.5950520685 179.0259926828 78.4445346601
31.5699406955 102.9933292133 78.6750383919
91.4453411860 50.1260826983 116.3982135887
132.3168817376 101.8504315785 125.9560411891
82.6794644887 98.6829287070 126.4645776208
91.5555720103 101.7189546306 131.9415775904
28.0733149717 116.9674388446 78.7358069315
66.3625356493 167.5703515907 110.2377313162
95.6863939118 189.7657840430 92.7104302874
87.9201933790 179.2140634656 78.5875187075
70.3728488263 73.6293016164 108.7713537178
62.1528900655 154.0286640751 78.9463295836
115.5876019274 103.9248558627 116.1131342548
83.8291112650 183.2246249767 78.8492759075
7.3292475368 108.4113331561 78.9152723129
57.4137816885 159.6896880062 78.8151357484
81.0297825578 187.5848851742 78.7092586128
79.7725254134 189.3934609509 78.8473462046
84.2213664458 197.3234985462 78.8470173449
100.9202665401 42.0452372916 115.2125619285
51.6658342072 167.3698129898 78.7984074766
61.7405924179 134.0563527497 138.2316656183
40.3173246524 158.5880777888 78.6034159345
85.9464378373 71.6171425284 116.5698791280
33.2164746950 139.4986021690 126.1780822321
65.1034555770 136.9324419482 138.3478780521
112.4863959999 105.2504813418 117.8912525764
133.0551174441 104.1381329582 125.2230734134
88.1291106386 69.5349094912 116.3766366946
29.6140141940 100.6519209498 79.0770958967
25.5169821243 98.3744978858 79.2777727047
87.5910153742 145.7573051016 115.6429764897
60.0920961967 137.2078422826 79.8495496134
99.3121990612 177.0840282933 78.9419090832
92.2414762801 171.9718215230 79.4305651176
62.7152632671 142.3702493903 79.5054183117
16.2827774394 96.9050890162 79.1108422478
26.3240071390 110.5586738025 100.1809157124
62.3164977275 146.3784799370 79.0389395648
153.8118602440 89.6309011852 110.8371353986
46.3331616100 138.9982890041 137.1530662747
89.4645260604 176.2995549800 79.0096637430
50.5252799768 149.8511493522 137.6799069813
44.6205960224 137.3597067271 79.4000515706
7.8163596367 104.1783807470 79.2797033641
40.0423982513 138.8269514709 79.1406708832
96.2485724073 69.4121159505 116.9242274283
84.8146707440 181.0752430778 79.8191446220
61.2005288004 168.1716985752 119.5690936247
82.3368372399 70.2932005544 116.7684149854
68.4214317294 91.4490673396 108.6489939831
90.9863921166 192.9510377637 79.5729043087
10.6371170265 113.2627340878 79.7245596374
100.7134564222 114.6345414257 126.3343292834
37.0218133158 145.5220221611 78.8941459932
47.6796503222 136.2423038538 84.5720430591
53.7653214848 165.9313766776 79.2730558389
49.1957270438 152.9750543640 136.5599492819
32.4907076347 146.6255083174 78.5601083469
52.6829921738 170.7085373623 79.3964969096
36.4773738915 156.2941903380 78.4497552652
38.6689235851 157.7681420279 79.7349806870
155.2780128470 80.2532784681 119.8644604178
77.4056271654 145.3707268723 132.1185102874
24.1055197605 152.1632599726 78.4765944866
24.2428577663 154.3284021430 79.1388961225
105.4974099200 32.8833684829 115.8953892031
79.9908026159 89.4565996279 126.1894334292
93.0154067011 168.7660097179 79.8656264333
33.3523738521 109.4145407444 80.2895290786
45.2423555343 164.1560759337 83.0091786252
100.3458772296 46.9105453713 120.5894683385
54.0678729780 113.7131938802 125.7438780196
43.2332657150 174.2675626899 77.0064986650
30.6548848058 115.2700424772 79.2405519642
82.2787008463 155.0745469847 116.6835893260
87.7272861164 139.5725229189 114.9946708811
130.6476580169 86.9520911397 116.5624146869
101.5822931566 106.1095079373 118.4640750970
41.0574394101 129.3821566587 132.0588913221
25.4586594453 119.0251965542 79.6204139231
36.5742030228 144.8119281369 130.9239974742
93.3283840501 191.8785780503 79.7417793999
34.4303751888 125.2433008482 119.3996805405
97.1865868607 130.2504864698 110.2374271221
32.2111353664 143.0907980886 124.8388188180
67.3162961586 135.4892269758 138.2092166911
55.8811824537 161.0373109631 79.1976152114
39.7153713363 149.4837490900 72.3501163293
147.6156660829 94.2506326353 116.6286899853
45.6661796206 163.4801415642 79.5565502081
79.2716341324 196.8121600243 79.4686761606
144.3720786061 73.1753284843 126.2156000217
27.9463945632 149.5650443021 79.1359055252
33.3453836077 105.7679560296 82.2144702871
158.9624195489 85.8386046671 118.9516113557
25.4350330674 117.9616076792 85.6244488136
26.5815904703 151.5896884061 79.8180516068
30.3734713349 156.9502000082 79.5617427117
13.2219953960 99.0299773681 81.3081415915
152.0625018311 76.8860511038 126.5771121631
92.0205162967 100.3103378461 126.4234269874
44.6790953772 173.9789463084 79.9713269849
73.1289850733 162.3935548511 119.4914058444
99.0257730083 173.6583127110 80.2456895122
32.2072749288 157.2142185754 76.8487209283
100.1867916736 179.6198866374 80.2903759987
90.8783020107 170.6630243057 80.8294129500
49.2617152768 175.7127139684 77.3814667747
52.8649981186 136.6272962752 80.2528383027
10.8387429398 100.2219404048 80.2349481745
43.2217349614 116.6648850986 119.4842326742
28.6566671116 152.7530483300 74.5298904296
98.6949883228 188.2657378246 80.1706668861
60.6903994836 152.2824460286 80.1220344126
46.3180628848 138.6775389561 80.2616892905
42.0804436422 137.0971585008 80.2697330394
139.4493367040 82.2705381437 126.2619701871
82.9653575621 190.8961842188 82.8048762688
103.3416198873 42.6874609354 108.1779386698
37.3374335580 143.4661231095 79.4543638883
47.2244196952 141.2599905382 137.8046140878
130.5073169042 116.5923340374 108.7645946687
12.1566943011 115.0236958810 80.1848036156
8.2846865014 109.8711487583 80.3152529921
127.8738631628 113.1488020975 116.1892096789
84.8879646852 195.8696602864 80.4222167789
35.4878261191 147.6132984324 79.8813031146
51.4620465610 170.3905985690 81.6903851842
42.2552455560 160.3713601152 80.3359377164
44.2362953098 161.7936347453 79.9389691508
67.0187654731 86.1943900553 108.8597115574
9.5780710383 105.9318778108 83.6501705684
40.2218832994 159.5926300081 80.4356788971
114.2656744177 39.5739621199 116.6933879533
51.6266588181 173.7548071147 80.0829842272
106.7882916110 60.3105060942 108.5127816969
7.7560640261 108.4354616840 73.6835798005
111.8508080105 104.5169718466 110.8499981822
44.4359551338 167.1458568526 80.6342072556
96.9801737691 110.3219897122 126.2344389670
47.6022544040 176.4781841179 80.0950650826
33.8115659061 137.0132435827 125.9846804861
97.4268906160 170.5658882010 80.0586368725
33.1346810423 106.6064230991 80.0581263804
80.9893825785 140.3304400462 130.2676131590
115.8711066015 123.8305246527 100.7936761983
52.7813122470 146.9014247617 137.9343138783
68.3748439421 162.7957338054 126.1228225529
93.9618454978 165.5988511810 85.0520021933
26.4214761943 113.2708446037 76.9182314263
44.9238720074 167.4336900991 116.2962105772
129.0787080528 97.4935557884 125.0320641552
92.4756111059 101.8864809011 116.6550160580
76.4030806993 156.2980831959 125.7942117751
14.6872901570 116.5849531046 80.4555874781
30.5101903859 156.2691072945 109.3246588956
37.8272825901 141.7951178598 80.8340172181
66.8526132113 104.4465836399 119.6068603907
100.5189064423 38.0112046449 111.8200789082
80.7059735627 186.2494284468 80.1102876106
85.9099136500 174.6934006441 84.1569641835
85.2169384286 56.5412852842 116.7244721721
40.1517197927 160.6952281726 83.7205575358
32.9993221518 109.5219859673 78.0874398221
33.4403650601 147.8990005325 80.1223243392
80.0393947389 194.1209157174 80.4283116765
13.6892515684 109.7208128278 54.7005967868
29.4047160742 150.4939017439 80.9020654780
35.2891093002 156.6578755137 80.4325593960
64.3261465872 147.3724679381 137.9433974821
49.8293888583 174.5988669538 80.4950661315
26.9489874051 153.9435101388 80.5642551059
37.9230163595 158.2598773927 125.8583927412
44.6977419560 178.6836354768 72.8522910090
53.0124454285 135.7559165439 138.1578548800
64.2859966030 160.4639257424 131.0626015434
60.7871081690 150.1682683027 137.9859045342
23.0980984720 97.8781021494 80.5939652458
37.7754653101 105.9559297729 89.9331848799
41.0019865954 109.0140627400 90.0712793650
91.4385715341 167.8955439429 81.0081865949
58.6476188001 115.4528193965 126.0083487622
32.0107026117 113.7369104295 80.9387280121
100.4834902952 182.8879710395 80.7899292325
33.5887862802 124.9526354153 116.1222388900
100.1336283713 31.2385805502 112.8586128616
73.6902672428 163.7705338732 116.2531423136
62.0280736001 148.0320609898 80.2915830986
88.8490583461 137.1786758778 116.0716771982
8.7679126502 103.4567087531 81.0792094943
90.2280576782 81.7317139615 119.4312149770
23.5706402598 119.4872417046 80.9286875147
84.0282503689 179.5989209321 81.8163406049
61.6130688992 156.4701074705 80.9085059254
65.2820095451 167.1740525053 120.9499095361
60.2086024248 158.2287582472 81.0044493691
10.1816163007 110.4631540712 81.4066853418
98.8861817785 119.5801076481 125.9836897092
80.9646679803 182.7913796297 80.9678341709
86.3974714441 56.0587340547 118.3182433724
50.6578554004 135.4365019715 137.9834892321
55.4942777258 131.4124793943 138.1529293113
37.5385239266 157.9138243985 81.5518433903
105.0921864869 123.4987283878 121.9295488911
47.3748626449 114.4696775757 116.2983164506
154.1829595431 78.4430420832 126.8307158580
107.1393435345 48.9261700011 108.4701190674
50.6602238816 120.4161710421 130.9541070395
30.5086431699 101.0622616596 81.5209970103
51.6174343129 168.2644094268 119.4262308843
74.7439189974 102.3709831318 126.0329174273
18.3624598924 97.6621437418 81.5611818021
55.5938049158 136.3745480699 81.4703039591
74.9635623919 100.2262281369 125.5794513928
40.7554373662 165.1838682416 116.3112202626
12.2361959065 100.7227793414 52.5104705587
62.2862759670 148.9081165498 82.1694529715
86.4444411273 177.1207302947 81.4095403830
44.3300346830 137.6580730103 81.4934173622
39.4454561750 139.1360753727 81.3195513005
82.2860358129 181.1542944822 82.0437168908
160.3334721169 89.2881522799 116.0817276757
13.2391930027 115.0200480232 82.1793384202
25.9449074482 118.4809870584 81.7301546170
67.6780485693 98.2856990714 116.3397187542
64.4553806314 111.3454118933 126.4502086985
54.3453527201 162.5068949990 80.3347892737
36.4232972620 146.2733526671 81.6779456330
78.2478554498 96.8263590535 125.8038794796
88.6456250343 193.6614489512 80.9078701273
81.4337174781 195.2977337506 81.3857902996
101.2845680868 128.1055637227 115.8918725163
30.7619646207 150.2268109562 120.0376598948
58.8971371092 130.0730879346 137.9134488611
48.3797412987 121.5082149704 130.5561441111
103.6265782407 106.8325480802 108.0816845833
101.7812136717 116.2736490672 126.0714327552
27.0216511699 99.0962934040 81.9026205589
74.1842283961 73.0602155530 116.8922848822
92.6481222806 166.6318510600 82.6688816545
83.3781596635 142.6357129045 126.7580181276
109.4750878015 124.6932205763 122.7656053915
99.8531456598 172.8774881778 81.9228350157
57.6498619340 131.7357934149 138.2440946541
30.7721166867 115.2980002752 81.7473360357
52.4515255400 136.4860413858 82.2204629127
119.1103136680 103.5342785854 116.5598510731
48.4070556180 137.4798219624 83.1026672529
48.6177080617 167.5252317665 76.4600917725
61.6663307103 143.2596323765 54.7070777241
97.0546377187 48.3197337174 108.2915765258
96.4682297079 94.8002488241 137.4388543578
8.4509210561 105.7609630624 81.3881956525
77.2345453593 98.8578796774 125.9644139448
20.5290977370 119.3127630670 81.6209833320
8.9995377440 108.6378705228 81.8532277414
105.4146500451 30.4573481052 110.9672711248
79.6892107327 184.5401406259 81.3540410000
12.0131122727 113.1910137338 81.7835440250
50.8114691296 167.4133739348 83.1792675368
79.8354534325 186.5572686145 82.1748928689
40.3095105635 153.6000415432 132.3826613252
34.2716720263 158.4709496453 119.4528282759
83.4007688852 194.7965308565 81.5577650145
53.4526061979 163.5016542458 81.9736794089
81.8450559556 192.9139058874 81.7657360950
61.0366947242 118.0579334616 130.8028199859
82.9253586406 95.7144678884 125.9953163031
62.2111256773 129.3477036948 137.6538283808
122.3803706518 123.9829035497 115.8256403177
98.5472707898 102.2889787034 139.2032735639
29.0481959630 152.4978441732 81.5915804505
47.5211705021 172.3585670203 81.8121749038
32.5656148147 103.6038789127 82.2644626158
99.1094827641 111.8705689352 125.9683507570
94.7607114176 167.5867157385 82.0215115183
100.3044097087 175.6961431283 81.2962706442
26.5294558710 100.7102711994 87.4332971548
96.5344138398 122.1281491075 125.6724258259
127.9557651190 115.6917745294 115.1096756142
88.1788528536 174.4764898685 81.8827506634
29.0207508283 117.2849858662 82.0458792483
106.2224328629 129.7892335744 109.3216405799
69.3036560680 81.7054909455 119.3590953823
164.8334890037 90.7765368049 109.1592953411
64.3630043394 168.1263050328 109.4427308514
24.7631895783 98.0166469801 82.1023999249
91.9249492851 74.3060226974 110.6769758551
114.2564925564 38.6855540822 108.5658915000
81.8602822082 92.9296319293 126.0922541383
129.6318640057 89.2200920753 121.3211692950
18.0318683603 118.0450546694 82.1628299968
77.5620870791 165.1927276521 96.1349068512
98.0769829154 107.8428399893 125.6314249695
11.5847699610 113.7350014733 54.9884498828
50.8284751144 113.0310608139 119.5635735272
57.4855916233 160.7882314780 82.1116285863
37.0926532585 143.7076724566 82.1699763116
88.3766487673 126.9535486789 129.8587629204
38.9466881726 166.0360129885 108.9691092291
120.2225238905 44.3010890506 120.0610089334
130.7725445784 96.6010622342 125.8684055848
44.2459848130 158.9369162409 131.3461249047
36.1127608452 157.1044655458 82.7633732090
98.4496913414 169.9408935969 82.5882167891
123.7969534897 122.8145929489 102.3457085886
100.9926969551 177.2532449290 82.7677244609
20.4204808939 98.1108874619 82.8508131788
89.9961233112 167.2245499675 82.6477291492
51.9604139500 151.3807904868 137.5089461449
72.6805171759 132.9328116388 85.8792277087
145.4623609949 78.0729010606 131.3386991974
15.1910491946 97.8613828345 82.6975441444
162.4682711967 86.6686922685 109.1475434581
80.5237806281 142.7519785628 88.7257895268
25.6003563333 150.3551646634 78.4793001105
4.6015653941 111.1999612341 57.9336077145
95.5618162327 124.4108511098 124.4679319669
106.7553766108 62.2780349819 115.3713841767
10.6930256762 101.8994029059 82.4558886529
92.3113684830 84.1886865094 116.6780494449
40.2900018664 137.2837693718 82.2558721598
63.7804014302 132.5627273039 138.3562900888
100.9212322320 182.4789142047 85.0005509756
77.6422330707 87.9937875919 125.6185869479
21.5423964687 118.5927499054 83.8534012495
89.7325990694 192.4214267826 82.0981200430
90.9432445331 70.3696964586 115.7533499272
80.7117365872 188.1721300894 82.8007713638
85.3881808651 192.7412348000 82.6305518259
57.5007811976 169.3078717787 116.0394898680
93.1021350062 80.3078036805 110.7498018660
93.6985690298 131.7022024254 111.4047262146
56.2015903321 161.9106776577 131.0546657289
48.6098555828 169.9348809618 82.6532192555
29.0472072823 99.6783099038 82.7070096485
78.5217951978 94.0340815870 125.8160113366
79.3357031594 180.5879475704 84.5280003551
42.0573707147 166.1069191722 117.5650952939
139.8846889067 108.4010035315 109.4465838842
61.4756854796 138.0478413868 82.9063060829
84.6419950006 136.0037357465 125.4476712570
41.5404875844 117.8104196733 119.6238477915
62.6281407072 139.7596867930 83.7047285578
107.9360124252 105.6021505322 116.4222116846
58.8106523102 151.6288309379 137.7059301523
31.5473212813 158.5862134564 108.5015937457
100.2659896515 185.2038417370 83.1094004164
62.5075653031 147.1952596571 83.5076889421
59.0540366345 130.0705800941 86.4659510657
61.7328769794 150.7900688926 81.4309715445
129.5197006095 90.7727979113 109.4355186887
29.8354699603 141.2582322438 108.8920382220
42.0089892747 135.6747067699 83.0754957400
48.7474033543 148.2515293465 137.6462328273
9.9730316808 103.8712926773 83.2151079195
100.2695935951 171.0815019441 85.0174317352
81.2755703137 179.2935241454 83.1876592452
56.4791219199 111.9750675845 116.5448853471
10.7283849467 109.0035015909 83.2440056220
65.5620101024 105.9128655944 110.2806750184
15.1848637786 115.9508579679 83.2477118769
37.7669697430 141.3153428964 83.2284138074
87.6080727104 192.4278806969 82.5065084763
35.8831909154 145.5096993068 83.6885844862
11.3320469410 102.8758092495 67.8930324836
81.8934670452 169.7971588084 108.0218354510
91.8183665070 79.2019095451 115.7860635622
32.4803342105 150.6805521885 82.6660029555
108.6009620171 59.6644458014 116.2542429360
32.8610097022 154.1169227286 83.9474071919
30.4154839364 101.4876416849 83.4541774972
46.2434085784 169.0131934052 82.8447304591
151.4592430360 80.5907638038 101.5229113594
18.9012657865 97.5973363355 77.5825470646
80.1751334070 68.4174871678 114.6615623612
100.9667609271 174.7275005438 83.4687717914
63.2105179368 118.9920806915 130.5490765800
98.0187101516 45.3433151742 116.0673356315
57.1699476704 135.7969294331 83.8161245311
101.3571114132 179.2074119798 83.0724057120
139.1044802536 83.2864376793 116.3137922125
53.5071001481 134.9911255516 84.1184465078
126.0401504434 119.0316785402 115.6990970815
44.7978107435 140.6611346631 136.4460495408
51.2259325978 135.7545513730 83.7254784761
115.3246451673 43.4262103973 125.8170239385
33.6069101218 160.5108531170 115.0229469774
99.1705697878 189.4002838142 83.5995268785
45.9813812302 138.7823396629 82.5766903974
96.9879924801 190.6315713270 83.5487877277
152.4967968888 83.4284377718 125.9606049921
37.7127317364 111.8551689423 86.2691589930
60.3738210759 154.6049160624 82.9319197193
43.8198764825 169.3760348886 79.6406258125
86.1522219854 139.5726673521 121.0168869967
46.4482874881 174.6182791373 80.6915835108
141.5060206827 105.2830303387 116.0662389980
11.8333040179 111.0877408873 83.1642027827
154.2416871623 89.6473163019 116.5271507887
92.8270492349 192.3914283271 83.6637175837
55.6611373445 162.0097290049 83.3674619902
40.5887635196 161.0883015785 126.0166906452
61.2729984130 151.4031101949 83.8770182647
35.8351791074 122.0716928488 118.9055899860
148.9625721188 74.1476701534 125.6234175132
44.1222480656 162.4631610044 83.4553679930
46.1549039754 167.0921400869 83.5372573213
44.2770734516 166.4535842130 78.0206839426
57.2413588539 168.4916687529 108.6108334964
54.4378129092 112.8311266869 119.5190578120
33.7831996042 128.4092141805 120.9647861975
33.3678145987 106.7464626623 83.9755341386
145.0749778419 74.4619979308 119.8527686846
73.3255945427 159.3469218918 126.0896463319
144.7622953423 77.7285298937 116.5206821748
74.4118986909 143.9143202491 86.6884977494
107.3498429979 61.3762517796 110.6817852961
46.8352003526 164.6584450671 125.3320487829
33.4810685378 112.4759747001 83.7170433978
62.8081914376 143.1340742444 82.1404411492
32.8983851759 114.5279958812 84.2315687672
86.5664271922 168.5039886919 83.8601061559
66.2460035733 122.7801730724 85.9349797630
91.8012928236 132.3147485188 109.8591114898
27.4095955783 117.7083233275 84.0906623715
67.7696462922 137.8511803252 137.5795035340
78.3888254173 161.9219739947 115.3628024670
44.0774168270 137.8397565197 83.7091615380
63.0561308191 144.2661217172 78.3834124442
45.1723177418 123.6013371939 131.0313696755
60.2993622115 165.5937360988 127.0409936865
35.8285242854 148.1443022317 83.0031386014
13.2526683650 113.2849346451 83.8886852947
158.8007519958 83.5856953417 116.0230348177
79.2950579445 184.0342712885 83.7415323865
67.5508176626 142.5237739400 137.7022221414
94.9614437079 191.6296080371 77.3884500907
33.5407974506 152.1015838784 83.9793722217
50.5837795761 165.1563307488 84.4412339232
34.6307698821 154.0385912801 85.5633218010
96.0698145950 166.8332970074 84.2398547142
31.6047296375 103.2317329615 84.6337608031
34.0619994826 110.4209737554 83.6739175160
150.2023179459 75.7163449405 110.3862882189
111.3136290306 49.0423288729 110.9185482540
34.2943256935 152.6829909557 125.6608068111
53.8151470239 165.8170344441 81.1994672239
23.0170165709 99.1618443165 84.7779790843
59.6134377269 136.0668992249 84.4523343937
45.5403417761 167.5347102924 98.6252315656
29.4440004888 146.4636109532 108.9332867438
100.7185410032 181.4954839076 82.5499121172
17.6706155404 97.2167194527 84.3127419669
9.5379914552 104.0549312851 53.0459213960
118.9034306366 46.7513986901 116.3104084650
133.4341588716 89.2418568881 126.2388727859
52.7334883285 166.9259328127 125.2120280994
53.3002727246 169.8497343844 114.9488204791
17.4579665399 118.4728353771 79.8941351512
32.9829894917 145.0452535766 125.4574866979
43.0573204952 120.2997005183 124.8665891931
18.2663689068 117.6218138536 84.3500157302
50.4846433650 137.3788836254 79.9900744198
58.2074203514 160.9934300414 84.3785121458
147.5176278884 90.2562813418 125.9309069653
91.6965432945 129.0759406558 126.0537493304
100.9478819315 98.0147565643 131.3397025584
62.4289894320 165.7578224561 125.7724137127
35.0543156558 156.0281367491 84.6053213674
37.9154916469 159.2920405923 84.2672703071
118.5440815854 42.6404641374 116.0790917051
60.7039804207 123.2272252530 84.9417408399
58.6282168758 123.2683427669 84.8884656107
56.3050878460 123.5408303531 84.9152024152
59.0966263563 126.5166041046 84.8306550035
59.7737115126 128.0501912860 137.4268412137
92.6574907994 51.2404989892 119.6744917425
36.0026214654 106.9925195640 85.0211539031
56.7371902601 114.4791485803 125.5868775108
46.2954823924 122.1403065372 129.4464449164
67.4730564382 142.2503658527 88.2067984983
30.3604821710 130.5719279410 115.6830874726
69.5217018032 166.6002242127 115.9741938923
31.2080743053 128.2160485878 115.5701684193
101.2784120739 180.0868127656 84.9064113211
49.5940238411 124.5097550043 87.0937839775
48.2203884402 168.1595478551 115.8354243749
86.7797319786 172.9924930375 84.6749020304
30.8726342975 116.8726626422 85.4822196383
34.5082290403 122.8672673265 115.6454311820
109.6327991107 104.9546031560 110.5921350315
12.1536583615 101.9620001252 84.7619422239
84.2787669141 176.9558053191 83.9882395826
37.3319575934 120.3242268894 115.6788440055
86.6480201306 148.2389312061 108.3669767776
60.8970602290 156.8376067395 84.7197127406
82.2759982597 159.1458758215 115.4158610584
58.9158789851 112.5891704294 96.5492213307
94.5799447542 191.7735941529 84.7860785635
12.2210816627 109.3760290266 84.6750584244
68.1774731346 144.7146262854 137.5096150382
39.1909713606 136.9417683815 85.0359830604
32.4400701011 111.6813342631 78.4569882223
92.7295279127 86.6367094244 116.2484342309
79.5694903036 183.1193194627 85.4397312453
36.2594483949 143.8312941261 85.1199144186
81.0092697554 188.4261460464 84.9145013144
86.0252454027 147.3720507704 116.1065910884
80.7161946797 136.0508322856 130.3858600613
56.3260405064 121.4657887040 85.3960950575
81.9546976152 147.7022217696 126.4988282101
64.3987934532 123.6892363476 85.3763771907
58.5143797884 120.7029478646 85.4857101144
63.3698794024 126.7455411960 85.1643026850
62.6058992885 124.6463960970 84.9706192803
98.3795305081 168.3415474567 85.9008010759
61.5546363552 127.3696933965 85.0518352928
25.1338795793 118.0734473153 77.0316570246
54.2241611012 148.7940440767 138.2387148076
87.9525811500 100.0213216795 125.4687763814
62.5993444066 140.4104195220 81.0814001234
112.1215468281 36.9184347352 121.0403168981
53.8422459471 125.7751650848 85.3197706783
36.0868924419 110.9453742452 85.1728008486
62.2414137743 137.8658860148 85.0242227978
80.3675450789 85.0359010058 125.6125073539
32.8816435597 149.3935129902 125.4768790047
63.7256164120 145.2967846199 85.0343282538
47.9660947766 150.5546709488 136.9755531837
88.0524905210 171.0184454449 83.8946549899
97.0151093330 190.3457991573 80.7645989567
100.0036092550 94.3418310206 137.7339289255
28.9762403333 117.6714742371 85.2682733399
119.3539624485 105.1026941918 118.7295148100
103.8921140068 41.9573817825 118.8651240480
40.9879261952 131.3037662139 85.5776136310
37.7228649942 139.7320120456 84.5507687853
60.0384895821 154.2054498956 85.0473025141
82.3283736653 176.4012869463 85.3873567405
88.4824531677 153.1196852321 108.9328453608
62.4314161081 158.7179525046 85.0038754814
42.2669900365 161.4607050672 83.6799671516
80.4084808331 177.4735694248 84.9056398592
102.5749381698 94.9471334073 137.4183324685
40.3039216862 128.4248743847 87.1221710918
17.4340776230 118.8823939653 77.2752092329
106.3271741703 31.7377005836 109.1768951087
80.0429838783 191.2660148337 80.7472447937
89.1143111992 192.7163219309 84.8595947320
55.7017322002 162.4308185084 86.2288691225
106.7578672860 128.8348550415 115.6997206976
136.2313260751 90.9916692262 108.7656819512
102.0825899366 106.2780695592 109.5698057347
35.6848605732 148.4870536431 86.0508467368
48.3394149805 165.7321528448 84.6564856982
111.4280990689 54.7071035552 118.4778051622
71.8673147287 129.7732935932 88.1075852256
63.2127108423 121.6161971331 85.5210416014
65.8444043004 126.1120239125 85.7001849995
75.3170464258 135.7941783738 85.6786313296
69.7138353454 136.9708898975 137.4208082724
46.6096159002 168.2695348497 117.8342689462
75.5664898111 138.7352293270 85.7799929607
71.3322250419 134.7108229457 85.7079845902
92.7590569338 99.4717406605 113.7999646737
67.4480107091 81.3856620710 115.1882558187
93.6171653668 101.9995586095 108.9844979716
73.5868400805 137.2365782382 85.4634379880
78.3857060543 91.3693014944 125.6105604674
71.4879748734 137.0584937390 85.6131845609
72.9139047592 139.1213603958 85.5072723448
75.3698623672 87.9198011551 125.5184732490
95.1877095781 104.6937879582 116.1319659140
89.2218373009 172.7849667977 82.5204107066
84.7058385710 96.6829064610 125.4370263259
57.6622931488 128.7051270035 85.6150197527
33.1836546857 105.1960084365 85.5712796822
86.9920601349 142.2084614615 116.2226150769
101.6953713903 176.0452873310 85.7767539476
63.6534673046 139.3344731873 85.5019808831
101.3259756088 178.0173672666 84.9221461525
54.1102361108 152.2122303496 137.2367557497
35.0355025854 131.3282760467 91.9803654162
47.9760188973 145.6005386050 137.1944131547
85.4059076260 168.6631331319 85.6977234953
63.4657701306 148.3926489581 85.1126429380
89.0776202300 131.4471196060 125.5600845050
14.9907379130 100.2710896558 85.6692411935
70.5999649424 166.5116157089 112.2966482436
47.6175296247 134.6500008937 85.9364992435
62.9349839346 150.7537143361 85.7196763046
58.4309998203 116.1090444587 129.7868985051
111.1939879383 56.6264595829 115.7948126498
148.6100411688 74.2703499050 131.5850860981
102.5227269872 112.6642183192 125.4386477579
67.2160896914 161.1312345726 129.2170295890
97.8150692665 190.4897095057 85.8695053450
151.7654509924 89.5061305180 118.9617787052
88.4328717699 119.2910415973 97.6536496677
118.7283274943 42.7920809901 121.4450669605
27.4687493192 98.7824630553 79.3925205731
61.0118788972 156.5009009095 86.7641164274
71.4479419234 161.1083516963 125.4868800800
90.0283220945 165.7612857731 85.9417074685
14.9304181160 114.1414821320 85.5971801342
65.5589284222 148.4990710678 136.8730630907
36.6083404533 141.5331049364 85.6778795292
76.4902779863 85.7586556098 125.4372195557
80.3446467168 186.3951859665 85.8273753876
112.2440415333 104.2148117564 115.6160863910
84.7854119921 191.9568912834 85.3158500180
76.8674306147 127.0491224559 132.2893102490
30.2306895997 102.5126105334 88.2578384052
44.7319278766 163.1992427776 85.3890688469
36.0157087766 157.5742020853 86.5566446094
65.2151003092 120.9130168398 86.0611651478
125.8776723166 91.7850312358 115.6908698441
100.5101338363 90.2322248847 154.8474842984
77.5738825677 135.5218947489 86.3697773227
47.4464533008 137.3070619037 137.3511759478
90.4567569028 84.7487836810 119.8711830662
69.1731114539 135.3456328842 86.2706775136
62.2291473846 129.7053102841 85.8172536061
105.5071592967 59.7650836413 120.0234335621
82.0135164001 88.2579082575 125.3015458663
51.9244495600 120.1664745624 86.9457682031
67.2062059804 134.3240597673 135.4787420017
96.1761966582 166.2695149209 86.3508771710
71.4641726790 142.8098310719 86.3341207945
100.9048482906 173.8158154735 86.1252118388
132.9863289762 110.1490314409 115.8233840086
63.9009663080 135.1516594533 87.0756313124
61.4937157318 136.1415489498 85.8873598757
25.1943332377 99.2914368107 85.5734839840
116.9050586633 45.0052323443 126.1154981030
88.2400962359 103.7396106362 129.3147640488
47.6245352932 133.1670873341 137.0889336827
15.9273737105 98.3488117079 84.5679576799
124.0465877261 122.3007178573 115.4643448528
116.0553140609 102.9454644771 113.9295418815
130.8433098998 99.2139077406 125.7407533521
83.0494028044 173.5765458282 86.1537524171
67.5929263409 82.9021625768 118.1882960016
84.4292201913 94.3328039516 125.5690602608
45.3457407736 137.6732694674 85.4209267424
131.3662616306 86.7870834832 119.8094590029
95.0997862941 191.3027446497 87.0819264309
46.6957374624 122.0849546588 89.0335501540
137.4152019746 103.5995840787 125.4439632265
10.8257961620 107.1151881957 85.3068340183
142.4672651194 76.2589554084 125.6185842212
35.6636111746 144.2308140012 87.1588322475
50.3429071683 163.9029301427 86.0254894349
58.3043342062 131.3814811737 88.0798289787
90.9368034963 135.0732609781 117.9560285037
111.0823374411 118.7479269779 125.3954099891
64.7283674411 119.0514506208 86.8083566394
125.9830997996 123.7306546548 109.0139972772
40.1269778427 154.3142919939 75.2290667243
129.7303114144 106.6491467617 120.1741517170
71.0243956987 113.1274151467 130.5395402903
108.2008295099 105.7463406871 108.3422197796
142.7906988706 98.5198222398 125.9009224385
78.1021420565 137.5484920333 86.4969374810
61.9167713334 131.4119555520 87.2774741523
77.7238717301 139.7382334149 86.5079640781
102.9328676203 65.6611365196 116.2009012866
69.7128989613 133.3042415465 86.2638984867
76.6830435509 142.2187082521 86.6534941695
51.4545425187 130.0034486779 137.2877643416
73.3927918693 141.2655650946 85.8389780100
140.2830822531 106.8591028347 111.2862176489
100.8748413522 92.9605951160 141.1581479893
105.0890158109 63.8262358295 115.5282353655
50.9867907530 122.8693170186 86.2789715777
149.3668565499 86.9143243327 125.7653677051
90.8409917869 83.6956014897 107.9617343459
55.4191415767 129.3431620481 86.5207386441
77.3872963725 111.6938951003 131.4656848074
51.3497109021 127.9440595961 136.7894184274
75.2836514907 98.2040046098 125.2189170582
101.4768531475 178.6768343508 86.9631200963
114.3239144372 45.5331147018 125.4091834704
21.0005153817 99.1965026981 86.0754991620
52.9312685686 133.7898674055 85.8284094329
35.4833147466 116.5319224430 86.3921722916
85.1504244404 184.7738715511 93.1698844187
69.0125221260 76.2597868979 108.3026226249
64.1715750522 146.7027693304 86.3826532511
49.7240801646 133.3915890062 86.6505499072
143.4780558137 82.3703342223 115.5957280437
118.0953462969 102.5741568214 114.6337992869
45.7962013719 131.0481085418 87.4005963156
16.1668160379 107.6901225132 89.1723728901
42.1534438108 129.7867032462 86.4467667163
84.3020570930 66.5416093944 115.7264720364
99.6405684904 189.2860627539 86.4984974425
53.5046501124 127.4718221979 136.9343052261
39.0563479993 130.5867993168 86.7205415588
94.6188145449 50.3588529805 120.3549531390
39.3491600969 132.8392981795 86.2269028756
11.1948324185 104.4337362501 85.5329858603
69.8593934630 105.9467338391 125.4888048794
13.5736206082 111.0821559156 86.0021821600
82.6849057259 86.0135916641 125.1253103646
79.8844103120 181.0408484892 86.8601520143
57.8596164058 161.7307085577 86.4084342743
52.1336659766 165.9120057257 83.2799209976
138.6691429990 108.3467947671 115.7080151869
35.4965970644 146.2418913991 86.1092349802
147.1690532160 71.9413408630 125.5969776807
125.1605322932 94.3470127170 115.8435513661
157.6553788831 90.5170036795 115.4794785544
101.1330820571 91.1629913095 156.6933199536
62.6827947743 119.4728431142 86.1884281667
76.6373396616 133.6717924764 86.2885292863
135.5837602928 109.5491136045 116.5181577147
58.3088089554 118.3076322808 86.8905105656
30.3161432546 154.5577544309 114.6083422196
65.8441752380 134.7057098572 137.1472428045
65.6155394383 129.3220313384 86.4011234616
43.9843586800 163.4800384528 124.9055910868
64.0228108889 131.1162487167 86.8411257811
122.1365119653 101.0643519317 108.7252065913
39.0290416098 109.7931289067 86.9414317228
84.5505292399 143.6504972035 124.7942066822
119.6158716737 121.8523258098 120.2997993810
69.1738223929 141.4431989301 86.9802383070
72.5724420164 144.6919918624 86.7990736030
50.9580032009 126.0755650988 86.6221435550
92.4147178535 165.6146924007 86.5932751716
66.0348657748 140.2455932256 86.8744034819
79.2028572748 146.1690589647 129.7896522625
66.2345802730 146.0213429684 137.9248810981
56.7112963232 167.0790681659 125.0981824230
74.9958079115 71.5762264379 115.5771167568
38.4933255503 116.3239186419 87.5119094250
88.1866366060 166.7144750147 86.4107334011
64.7713502233 142.7934177306 86.3914457187
66.5000625159 146.4336392059 86.8314442715
103.7401981873 99.2404165524 137.5978196825
50.7293249649 131.3212848269 86.9417912091
48.3822055336 131.4889342037 86.9496126728
76.9485441673 65.9722829984 109.0196224483
117.5337994726 104.9485075109 118.1077317285
42.5607514513 126.7574381911 87.1095051077
31.9010167664 119.3921439199 86.6383168489
36.4681126482 136.3628603173 90.3371737969
13.9481763328 101.9643686563 86.4784013199
101.1453752944 185.0169044038 86.5342002781
11.7758837804 105.6540957576 87.0812007408
84.2044278221 175.0131183803 85.4280518674
44.1485989073 135.4938619271 86.7360910071
17.2111518764 115.4940482269 86.7315888204
30.1080822832 151.7186391317 115.3031074319
65.2003823394 159.1504077251 87.0502531540
23.2474134932 117.7405255887 86.2576847096
134.0274855681 86.9096722936 125.3764857318
91.4545862797 192.2157538423 87.2849570514
60.0514886738 161.3255714896 86.9822865558
66.9580784982 167.8834738428 114.9864117839
81.1895712987 187.5217088862 87.4959625623
83.4256593029 190.5812908314 86.3445406403
47.1728817711 163.6524421914 87.6934982830
116.7203410581 41.5514812712 125.2103025647
128.0511449211 93.3195286982 108.1664070226
73.6510718768 130.7446576490 86.6506542771
39.0643074634 119.3467212475 114.9835300710
80.0222872385 138.6975448095 87.5576770648
17.2631192107 110.7786183828 89.8105183783
84.4441800894 171.6763755394 85.7176913717
76.4434480572 144.7881993484 87.3924612763
91.0509413203 75.7401649457 106.6529665208
66.0114739682 135.5664035259 87.3283713852
112.6372626748 38.1600649300 116.4909311427
135.5004409672 88.1962365523 110.8209574475
99.1625979815 47.4429223520 108.1304123482
109.4555025588 109.4108962100 122.0162270408
85.4851068144 153.6334813235 112.9367334721
94.3941073232 165.7578434422 87.3570886374
61.9499440110 134.1425123416 87.1765791455
79.0864681058 117.4171186722 132.0058740888
153.6259521160 78.9258129978 116.1160417544
49.1063429738 126.4313717966 87.9053412207
66.5740717630 144.1691210459 86.8165866853
71.0703185701 110.4496551048 129.5268624308
117.7543334745 106.8199932994 119.7270429096
20.1080180549 100.5531795790 87.3355217548
47.6332582059 128.5361776840 87.1846366663
35.3523710648 149.8735323978 84.6968168767
67.1809850213 148.3892891429 87.2984247522
125.3351578957 97.5581194840 109.6082042585
62.0744144558 111.7701240198 121.6962193354
93.4787805738 125.3278815898 125.5766000775
45.5940456913 129.0345243196 87.3936724252
64.3132477422 149.3509399248 87.3087484347
78.8764393511 73.3859957819 118.7411443170
83.0734652570 171.1444029427 87.4500654967
97.0982397873 129.9002373267 116.1629559603
63.8920059076 157.5418609827 87.5878726296
13.2329960530 103.7298538591 87.5123232849
103.4932409281 114.7009561122 125.6054562815
30.2330556578 132.6109292863 115.4582621617
112.2642954803 106.4832851433 119.6201355317
98.4051953694 104.6153050927 116.1081346968
83.8735236842 155.1031150875 115.1622410641
59.4881521399 111.1487408860 115.2661406858
45.6587614762 147.4244723418 136.7079220198
152.5346744239 88.9354361168 108.5905623015
37.4402416089 138.0723572518 87.3253090961
88.1175030590 169.2698625742 82.5023012606
56.6294082084 162.5309925427 88.2361873160
52.1102782124 163.3089367866 87.2636232817
123.5526367469 117.2280656775 119.1995226267
139.6803945884 94.0919766638 108.4731093488
76.3462699828 158.2573631570 124.6670350552
41.5819377563 161.3287134551 87.4231797551
39.1792045872 160.5382248870 87.3082203648
43.4486303022 162.6444192733 87.2463812450
56.7670843833 135.9774255755 73.7241784644
69.3789459658 123.8342643581 87.8998208214
67.2268304481 121.0406196346 86.7764973525
49.9762429706 133.4702578699 136.8172180237
32.8075592306 111.5220627707 108.0751337018
70.0821489864 130.9822763100 87.7968574464
66.5292954658 101.9523260192 115.3179304993
89.4316502299 162.7106803681 110.8130684205
75.4409413655 160.3306042809 121.4290601196
78.6297921908 144.2044055528 87.9283439604
155.2377762485 86.4388761273 121.2016073557
66.6526265632 83.2558570564 114.3763932581
66.5095853504 87.2099623117 115.0754975085
75.7632603005 146.8190089094 87.8223565252
97.7970460313 66.9073352392 119.3229632988
31.9922685734 103.5901481390 87.7050868301
87.7633613108 57.2043342455 120.3013263402
58.4439099976 153.5501970897 136.9245503151
28.8328552322 101.4033143261 86.6871989655
69.4538955220 77.3981832910 115.0463324335
75.1083083002 90.2395557301 125.4080551486
75.1168975421 132.1264378195 86.2735552043
62.3333787213 153.0100756881 136.6566590310
72.9328349424 148.7307696743 88.4289271146
45.3542580895 136.8857344409 136.5452602082
26.0645419798 102.4204522694 89.7250532013
50.8400497610 129.2224281413 87.9918894092
108.1029132061 120.3799714667 124.9292475702
63.1429741249 150.3819337719 137.2166774999
43.1021871447 124.9400959522 87.8139933801
40.4798494580 156.1656934680 130.8360992037
35.0210367496 118.1192815779 87.4642535643
121.3202010857 123.0154219525 118.1522292429
17.2719645654 102.0983599455 88.0391418433
84.5554368263 149.4475633057 115.1077761551
43.5875148725 130.0764282855 87.9002460380
72.6329264629 73.5853287836 115.6871647453
44.4415700105 127.3707159125 88.0030476142
97.8301768889 190.2440303518 87.9483748506
107.8143582562 105.0191496918 114.1890662178
81.6497183461 73.1575191978 119.0143533411
113.2316034974 129.6783723170 110.8291034886
116.5924172354 41.4072701936 110.3103197483
39.5904033845 121.9109526906 124.8413377991
53.4322164794 162.8544742518 89.0776819671
65.2801396678 151.0720554785 137.0135195825
35.1078046878 152.2540093107 87.1998700912
95.0024329131 103.4061988198 120.0673446490
35.9125277434 155.4420492299 87.8327843483
80.9077998596 62.0175792280 111.1547405984
105.6367352612 42.0691542307 120.8221231016
78.5482257341 69.5052263504 115.0958026673
80.4265641793 134.8956172710 88.0415436917
67.4214766422 128.0974316060 86.8289419187
108.5970433823 116.2415502467 125.1159760555
66.3472512161 85.2503027976 114.7053548770
86.1442011569 128.2871324715 130.4706841326
22.0853992561 115.8406058862 93.4230720241
53.0323563683 117.7430939919 88.4697685034
66.9850686103 132.9657496505 88.1497109426
19.3975210663 116.9833134813 86.0331350918
64.6022804427 133.2931270405 88.2764231200
39.7435731976 108.4539543636 88.3616669936
34.7798565065 105.0061049740 86.7466626126
36.7231333963 122.1048739250 121.4134912552
48.5325593005 167.6179554725 95.1694009304
108.4337526573 57.6816584025 109.6368868899
39.7211675355 112.1529417798 88.0026263639
86.0192209514 141.7663130638 124.9720294172
128.0022983900 120.6199592551 110.5951206172
55.5695975927 131.3558373986 88.0285534853
68.5215071657 144.4174087848 88.2069185431
24.4995058797 100.9424897050 87.7399441296
101.6049677551 180.5555012411 87.6547037237
100.9145521640 105.0079898346 111.0209891225
98.5270337831 32.8817025689 108.4499885193
135.1703046981 84.9231513051 115.0743519247
102.0837180004 119.3750096225 125.3191709092
47.6914011661 124.8957655445 88.0565360726
85.7265618459 165.6588884887 90.9664004637
32.6373485580 103.3401438384 89.6344551146
84.0626571324 90.3690046292 125.2586429654
77.8036220330 84.1512992090 125.1599396650
91.5845216978 155.1280766274 105.5117771583
45.1011898959 125.4950374482 88.3152314673
37.2408739504 118.3449621006 88.1674824333
86.7561807145 167.6286535756 88.0297076526
56.6697363416 134.0607515916 85.9650061862
66.2709646210 151.4347957195 88.2564357125
35.6820490251 129.3916223879 91.2442818974
64.1830759644 151.2879793900 88.1583017554
100.7744955887 187.0856893634 88.2086834331
53.4888677732 168.8422631307 80.8803647504
30.0263501467 120.3095566789 88.0189874647
108.2152621412 118.2449848105 125.1837738278
136.3432321157 109.1486699014 114.6711840694
25.7612367962 117.1339594787 87.4874669001
12.5929344004 107.7701743766 87.9306048401
103.6862020185 96.9731234131 137.0942269261
81.3178580584 174.7877949585 88.3246496213
70.0377778644 139.0123441636 86.0732501915
127.1395359639 97.5601149871 123.0942272735
69.2627569749 146.4351688020 136.8605030265
80.7944136198 176.8835048791 88.0539886697
102.8338492009 27.4681088863 108.8683516890
63.9736555755 160.6988829463 87.8782545236
30.5554665475 139.3781516775 108.4652735570
77.5047170177 99.0984927208 100.4254261655
80.9541347266 185.2173502040 88.3367998509
46.1701714697 131.7368963336 136.3005385742
82.9007692657 189.0368452712 88.1479744964
120.7509293087 126.9450943683 110.7856373900
48.9768925684 127.3844477621 135.8823087606
79.7948102232 132.9578313556 88.0106805879
79.2252812755 130.8295396434 88.4628040190
142.6560163964 102.6452082828 114.9521414919
63.0577433493 116.4285829689 88.5737948763
155.8323010817 80.9060682660 115.2335116490
66.1926719316 163.4269107191 125.6198299748
124.7649851384 97.6385242555 119.6048117647
70.5882684488 127.9160900673 88.6763264696
81.0878888923 140.5882365685 88.7190228783
57.0120258573 116.6368653380 88.5434334153
66.7975596628 131.0249821478 87.9550242885
36.7683487486 105.0028427514 88.3391320008
98.1150444618 167.6925297674 87.9274567184
99.2518007036 169.0265324728 88.8639230310
101.1373239640 172.6967966183 88.4991677284
38.4092455289 135.4322908421 86.6056572188
60.4666187488 132.7053847687 88.4852266014
48.8298021115 119.8161473810 88.8096083412
28.2837945027 101.9930434437 88.6365588765
114.1306407743 41.2355636217 125.0347345076
40.6032706997 116.2731276711 88.7553856727
68.8532363209 146.6985130529 88.5930388724
86.0331271673 147.9951837670 112.6818089199
33.4929144450 119.7346127925 88.0520878400
62.0409668454 160.3331854938 86.4319186580
91.2640629809 77.4003073947 108.2331076919
109.8577295722 130.0130709347 112.8599430301
21.0060145404 114.2632232253 90.5072387945
146.4930439078 91.1913898819 114.0986691739
89.9549567217 51.5332921546 109.3848363290
39.2168184529 126.7037500702 88.5380053324
61.1615845753 165.9538779824 101.0678709755
99.6926024544 189.1285865464 88.8263777184
146.5595966900 84.7527969301 110.7633740756
135.1431001694 85.1017611198 124.9312529438
27.8207294595 119.3616517289 88.7739358751
157.5349349893 88.7098784572 108.9051868068
36.2306832845 104.2519816934 92.7365709034
40.2989717303 126.0404838014 129.7005764908
36.5498188787 131.0642817544 90.4754874045
53.2608063155 128.6144159048 86.6791208709
14.5360681409 109.2200726474 88.4835110681
37.9376657231 134.2524273479 88.3099486838
81.1816342525 176.3289488883 90.1076057817
65.9041395793 157.5757297790 88.2966749235
37.1823968946 136.2645665554 88.5140194404
139.5005898607 106.0242116203 106.9887984696
58.3453399186 125.9002202055 136.6775135606
126.7946258778 104.8101926675 120.1081823277
35.5278840278 144.7113907013 89.1200081324
35.2620446997 147.8724154499 89.4908974165
53.3570982198 131.7882187838 86.7976645951
45.9669392409 163.1840035779 89.9577443458
88.1724293072 191.5963542274 88.9601678469
138.9235423526 92.7325515729 109.5962920193
37.8524558737 159.7953273772 88.6899864005
68.3373275841 118.2881690096 89.1923821443
65.8206174450 116.8454850199 89.0368764392
73.6505929117 69.1460939740 109.9964826610
81.5143159756 133.4999652518 89.0461175390
61.9528911835 127.1714376124 136.8830862028
93.4468946077 101.3986215658 134.9981684015
116.3790088253 48.6005005159 115.6356642639
104.3406775053 41.0412012208 104.8166427343
117.3244856280 46.8087901897 114.7078318257
65.0974262034 137.4303708650 86.6656579139
8.2314271225 111.0848782425 77.0011502604
75.2474310650 149.3447523875 88.7613776234
101.3674873873 177.6481450745 89.6491125900
101.8554996069 179.7577529339 89.7178379442
69.9631359447 148.5961014667 88.7506094083
21.8213512331 101.6995689271 88.7045907340
41.1973087542 125.0455674362 88.8307735640
70.2454917918 140.3705624758 136.9199251348
78.3422681764 148.5054754796 129.8248845652
16.9712570740 104.5536598734 88.9529291810
34.3236102610 130.4876131590 124.4881194357
32.0263441158 121.0183338526 88.5887349707
37.2138174601 129.5180752844 89.0143927493
127.9464066475 90.9507755232 120.5184414587
95.0477610052 101.8341831107 136.4774165811
70.1490604972 157.1248660966 89.3416135363
109.4217067581 34.3869158813 115.1962179800
13.6087473069 106.0511938031 88.5246981346
68.9467918570 159.0125487808 88.7951362780
99.1114667752 129.9269095035 114.1963755870
68.4817550422 150.8578811674 88.3366318190
62.5010820807 154.4387245209 89.0128172028
70.6180104607 75.2335064534 113.9089954993
108.1252492162 32.4591780096 115.2381387011
36.1534731661 158.4184566348 124.0027368796
69.4945195487 95.6539926080 120.7901755193
70.3884714542 160.7838177996 91.8179955135
19.2116833537 115.0237967098 88.9961092830
16.8809689480 112.7205029327 88.4819407172
71.4791859936 165.6569192977 115.4179140578
106.9992512387 41.2140853936 100.1790979216
35.6951259124 155.6759271920 124.4947997039
36.5601654970 138.7564561695 89.1521619990
106.9101096867 126.7107237800 118.7722382946
86.0851508851 189.7564798797 89.6764456483
35.9086539889 142.5434123200 89.7235983424
52.3735424536 163.2503568108 91.7186931529
115.5792079668 46.5687626272 112.5290397495
35.1403036894 153.8070325092 89.2807117657
111.7761518294 44.3113342685 124.9197590712
77.6778927349 133.8267166698 131.8792756333
110.9654140899 52.2901995091 120.9414017687
21.1548827244 108.6559167593 92.0903747302
81.2660494988 131.2528851166 89.6673004100
45.3141766298 150.7513510529 136.0650753650
73.8247360698 126.4991926024 89.9529569681
69.5680487447 96.9112294931 106.6083217420
114.2818454511 50.9124849305 116.1509831121
153.2001311332 77.9522712453 109.3874362801
50.6452191190 118.4707691768 88.8770325845
38.5997189774 114.2574866367 86.9478019766
94.1269457782 163.4286002921 89.6885459770
123.5924619224 113.1908792988 120.0345402940
60.6501209137 166.6961391581 124.8669803011
79.3981564172 111.7074141097 131.5144652404
96.7408842636 102.1346751652 138.0501133533
39.2667034679 165.3315961296 114.8571162096
