91.76079306015204 157.67761109890768 134.3208750041
59.52692657713942 113.99502395956708 122.7615305066
43.25389864861174 79.50384363164747 97.7667693466
55.22437811063366 107.1887509917502 122.2884832502
44.74591251252866 69.66437074351451 99.5375870099
46.0323486311635 71.36673593244689 99.2976205816
89.54979814375972 163.75232608472928 132.1161610795
44.84161468913125 73.27802296922536 99.8078204495
38.09226174226576 36.44617348441734 108.765023892
54.307515594887306 103.17899512921664 102.483457283
101.66107988465802 76.02879191304186 100.0154677843
79.37269802307584 167.3595907012131 134.1326952735
77.0275698523102 96.59873463808938 113.4081615019
43.06895965802455 84.8752421161544 98.211133777
110.64148426841223 77.02276811543464 99.4679406187
31.533582005072716 41.64862681279165 102.6392231045
46.72128823139268 105.32530740782792 113.2573986802
86.87950752240324 113.09880737840717 130.3454055949
59.06502705553969 92.46068383586118 99.4870995035
93.55491532711883 93.6520445177463 99.6783559581
46.1779980223731 95.85776816811605 99.6963511631
51.13894082589651 144.32510276960468 123.2645180424
58.17979822277466 96.83140212449635 99.8735383795
76.39342059079758 97.6833168425099 98.5464507767
81.5093396104536 102.18938480886901 99.2168471388
76.36886716469289 84.52922325795674 135.3751128938
48.53507939281791 97.74600641568244 100.1545003683
49.82544129801548 70.93950535845482 119.7453697225
95.59168478545055 97.73088793636018 99.6748736315
52.583401995447275 133.82026804183482 100.2433558079
56.764667227961 98.79982628112002 99.8518454606
53.743833216772984 99.23914428176022 99.7314503638
88.55994764080528 100.92591511798182 99.6607053758
70.20328277108229 101.26678687082449 100.0729578717
61.24747213223718 158.6081711252814 132.3090590972
83.96056168223392 102.16251571560686 99.7470263765
32.56810250213611 35.60853331053002 113.3922944454
110.10974835715555 59.75745612074003 110.3766194264
91.96280728876727 173.92880415799158 112.6401796404
97.39734949185811 108.28617435296852 120.9605109222
79.30056866820752 106.76500310519026 130.2079552573
107.45188223289591 47.65264258693817 120.7779196533
90.50906697061467 92.74159596601595 122.914854766
87.91105195431496 115.46000677151484 99.6088463493
87.70035173446982 112.15460006274594 99.5779349208
70.77733714773366 152.42594116516918 138.4783471571
54.2553179290156 131.10011005088415 99.3871004238
58.36242659897732 142.28381369678897 132.7845759432
97.94870157272176 128.13999806109715 100.5894289668
108.57145158509697 133.87489689617163 99.8167434361
102.7084551718915 133.98605694461313 100.0462633252
118.12917395767741 134.6942174099388 99.6293588821
44.84106916607835 135.02745995635388 99.8143442814
48.71809400198747 135.46010098659073 99.8233412627
39.26910428640544 136.36678573846677 99.8020474134
124.644345138216 141.60946852921774 99.8522429936
40.50310936182813 89.45436859846116 100.1530588455
98.14872478811597 125.98992234742794 112.6140829234
57.955188317346376 124.71461812627933 112.7518354214
36.50310019531469 64.58818811813101 107.8269002679
117.8141884194589 151.75425789421678 99.63270392
37.89758716204321 153.8296115499086 99.3774572326
47.49515851790268 155.22461895288495 99.7703399993
45.05383285552783 59.83596658164503 123.0312014271
92.82514916678858 59.35803230100795 110.5662914159
99.9186324479604 158.75107791558318 99.7598748444
73.50697970498808 88.87355636758305 133.5717879731
99.11498479166663 161.96432325801553 99.5354511253
32.48363496697857 42.95966535621275 112.5599746915
61.02340742699684 167.98769677524157 100.4299988688
83.54426715327175 177.53231448697508 99.8586224802
72.01871535065096 178.53072596602405 99.8248767156
102.14208123777652 87.68036496743238 122.9929365599
114.24543753834656 36.45622045481704 113.6593896472
36.08578191955888 37.469155654573 100.0446466295
107.18859758091224 40.152867982738826 103.7541467614
118.306233074463 149.41768826815894 106.4732481025
104.96372183257043 35.99510386242221 107.9612750702
102.33625160971044 40.17574016715329 99.8951920666
38.999292927532814 42.194527399124965 100.3062635972
78.58639814158266 129.62121630990598 133.9480480009
48.96501739042819 153.31582889067522 108.980425241
31.939906219949968 42.0770972978174 99.5413649785
107.70631630789954 70.01632843402399 100.3899909385
111.1223751356719 66.80454638232442 113.0959412088
96.11894108530441 86.60460599935467 122.8760243353
105.50737100837797 40.15892984095325 98.9530760786
94.09922269771732 75.82866692511212 110.5585374573
40.40689305700662 71.39436392565777 100.285029576
110.62136965541683 72.10006463660649 99.8929394908
90.96659658503461 65.40015266673367 113.1582509275
102.52885413329462 73.81526363415371 100.2945501522
41.02508790286354 97.48481242247809 112.8089491365
99.90556309111659 100.61998378695003 122.6292452961
50.36252912280302 79.32331258902929 100.4101405559
106.59662574089168 155.00990108496234 102.9410983348
36.452363700906034 81.35478575442525 100.1305295949
96.02550197241806 121.78941777898652 108.369908734
98.84826059792674 36.283840829924344 122.8887081962
98.35901391580684 151.78359588396876 130.1907121425
78.60637410295911 118.10240022532201 131.9360355699
40.11951618302301 84.66027225368904 113.6910171853
92.87588001339395 88.99243798862894 100.1541114949
102.3898969453362 93.9600947199159 98.2626422999
94.06226331464345 153.37316024377293 133.9676044268
72.77342359316634 96.26570107588137 122.3911809384
81.5908501640694 132.9746637737685 134.3736974546
107.2682154315649 92.22361814485096 99.9676357745
43.4032913569135 93.57831560984003 100.0985734588
61.145648405799164 93.93023823669199 100.4244479169
91.99746107091443 95.2816170736995 100.2630235126
58.41027936209638 120.98131975899418 108.1395950344
108.27047331814714 70.11441042226856 122.406060842
77.66698079791206 179.09785790192072 107.5293724585
49.024696068207504 142.62611773111576 113.0744637582
53.85604045309289 132.96413600208243 121.9350352138
58.80411342840628 99.0338861684008 100.2871137615
88.00889653485187 122.35046850761096 131.6461412515
106.72682698906175 55.00629969276389 110.9830578964
90.42664898163397 99.45666192964913 100.1482454993
40.29547581608044 36.37393833159602 113.7745565367
106.85950819011397 141.4003195474305 115.2699693781
85.68603295455384 99.90502443710238 100.1782394773
89.458574059341 164.49101449728204 76.6677747995
46.82304157723002 64.43212615459727 122.8978159342
97.57472997877626 100.04379640607621 100.3978451071
66.15448015629772 103.48225680178915 100.3185096502
92.50266552907354 103.51906922763848 100.2347862772
63.984969525419906 105.38445341386654 100.4778776536
104.97396757266618 93.31046933083506 122.7917933006
108.24349300872629 35.54381906415662 119.4314262579
111.97312813812584 82.98623001806847 113.2209927515
66.1603443367303 130.59928838459246 133.6619685447
64.97383498782808 175.29028631919294 107.490986315
51.34682094798124 51.88993674853883 107.7874755473
90.38900664025333 117.95168487074548 99.8956309038
94.9198241402976 109.51061386830897 102.7707321102
56.31081165799817 127.43620695352931 100.3746683743
97.85914679176811 41.99270571031224 130.6984275383
91.67584312501042 121.34807613136954 99.1364043628
105.77925098833997 134.32324142974832 99.9397572077
86.31845173244989 167.8525337421002 131.8162255461
32.36228896184478 143.57959745078222 99.4933953678
125.4702028070819 143.62652327101594 99.8063721372
47.01467751405786 47.09362469732507 122.8278037328
122.65481131131742 151.49661730393098 100.2109075581
112.79378685451695 152.77504439853905 100.0517081948
59.68199040641851 141.1361840892942 133.9007748118
51.45894350946615 158.593129619977 100.1235068474
54.77964151120195 163.4831969356909 100.4632934009
94.96766508532892 167.20167709018446 99.9688483
92.6395550800938 169.41489976063303 100.2714444979
92.37840841149568 58.586169161774365 123.1391637422
83.04414926003562 93.59044092227957 120.4086085614
73.91216095564619 178.55533506066573 100.9336598821
92.41623277800102 138.11921636927005 133.673026953
94.80548381483175 72.26955921371817 112.9197208304
48.61725630689374 58.494632426981084 122.8974268237
101.45811251881099 37.12578745296621 101.2834863658
48.68401554122152 106.24214500923253 113.3613015728
53.929017211233166 104.06227384633196 123.1928237428
42.29913312378233 98.937215316602 110.5877042101
114.09894170432815 39.07843966199053 99.1783577522
53.18045238915382 134.08448156554974 98.2424167474
113.91738994550526 41.70993517116612 112.8994637362
42.007365429440895 67.89756461905111 100.2366497581
44.867004802375355 67.75673335919117 100.4142334323
46.540022279544615 69.3187116652069 100.5757468063
40.31766607838235 68.75539487968322 101.2044100667
103.24389958145389 71.78710192646439 100.7437455139
94.6330723183737 128.95940291050013 91.3144985306
94.63065391652056 159.1429300283363 131.2836028966
46.47845427106512 55.97379485212582 123.0491280607
54.87657181971207 144.39228267674724 89.0148267531
98.75853741213923 77.92339666842543 100.2507341792
43.75189394503516 36.32819910286774 113.2135085233
48.51205193249193 77.43212137763118 100.4256241898
97.11166343011362 79.67996442381556 100.4680332579
110.28702318754208 79.26486180740808 101.1031359488
65.13993438112328 173.8316694781562 101.389454305
54.99871602635519 82.88410506385884 100.6789357753
56.38029916420982 95.87594177518913 98.9475590265
94.2676425336156 84.1370400739196 100.8643245583
63.54688684011431 133.3292130993022 133.8172412909
36.977947832451704 61.70321297204793 113.3695906649
105.10250023939793 36.14107752113442 113.020844706
60.163847256706745 89.63803877467141 100.5731575402
90.88872900899807 90.5785111231109 100.80705302
47.02940615996694 44.46937098222676 107.479808136
90.85292394811671 93.31343884506666 100.5756664947
92.2648940798762 55.657811001108215 114.5579525598
74.87532400487784 95.22980813610378 101.1041985236
94.35234748949156 134.01898773522288 130.8645535812
76.85751138214783 179.56741292300657 112.8680431656
72.51884700757917 97.54787630814069 100.9384133818
86.14441669386136 97.60101252320703 100.9796892281
89.49820242876915 97.78235958395057 100.5392910902
61.05452553919071 98.4458388005022 100.6604189456
93.56496311132771 98.8335028048553 100.5619605319
44.61317577255213 65.65944183829603 122.8067971823
46.64744357420756 52.598146451618845 122.9835400298
62.7033575719476 99.97680179619492 100.8209083887
140.2238812103551 151.6715083490182 82.4055161012
96.0136840517414 71.16542169018896 120.0727437549
38.838781956602006 63.43893592168573 119.8166878709
57.70639987608041 100.82298033254833 100.7493076221
94.66531079225986 100.71423689372716 100.7416045337
60.52846172599152 101.04887290627245 100.6294037506
64.39310352424216 101.32698612570728 100.6557356608
67.99387539419583 101.08217490687056 100.5899162237
54.833311362431964 101.05028962659907 100.5411019949
114.28034615689859 148.2762720067484 91.2736422505
63.60233681413973 103.22952143443754 100.4386065912
64.96300092838496 175.9662407932795 111.3069386836
61.363494154416536 106.74766433546523 100.9457501442
101.0133433788202 135.52970985728692 123.1427833724
63.27137845512457 109.37480608176948 100.6527014304
89.30602938381266 109.88302752223844 100.2271675657
44.795467700560096 62.709550103486464 123.095177435
89.37696222667952 90.68162684649238 102.2365581466
77.843198590847 96.68831683180517 99.5564326327
131.09373098485923 146.80334684684215 97.2717207464
54.95394315443211 129.319055301435 100.5299472667
50.56646633870416 135.38493994010662 100.8632133355
116.15613805451592 134.54952488347436 100.1979675964
41.06524144954902 151.00445065158175 107.0879426935
113.75702025712565 134.13323708008764 100.502990917
86.5264499489331 176.82605254784903 103.3493656576
122.71397541342063 139.34515257850194 100.476925024
124.98610999782386 146.14958797102668 100.8375914947
101.469245364881 46.7169276555388 112.7983408917
55.57391550021329 165.92717603959667 113.7044170075
120.39028389515684 151.93016141679547 100.8026338457
45.651531612766156 155.27875450414604 100.7896738933
102.65979519589428 156.3858552236249 100.8296136289
41.41531868510404 155.0346584377636 100.6019479474
80.45459691954277 127.21792964498617 89.1737328806
75.29032067434491 167.95375232846408 133.7350996311
80.68531743932937 129.82754288346138 133.7962828358
113.12538316364378 35.30528169421801 100.6973465153
86.81507997756546 176.26808920030774 101.1568624998
74.24101948668701 130.08301650414546 134.1926275112
61.98831226188628 169.57578551449205 102.2547316146
113.98187595916433 38.73228248748393 101.2791532579
101.63297208802982 159.99712604536 100.2681069001
51.026635802012066 102.59300110649677 122.9396544999
67.13744766204509 116.98161676391872 130.5851371291
43.5223651946141 66.29934854530104 100.9162409606
44.42559840725316 44.75161000589321 122.2654759801
100.78601495053067 129.8534483207127 121.2264009409
41.37852688591307 66.38942445200233 101.4465492569
49.52204273119647 68.77803177799318 101.0290680809
77.25387569763312 121.19632457685901 132.1583006699
42.908683631948506 39.93041304554244 122.6786355831
73.98241866172651 123.30707519707722 133.967992617
52.814037835237045 86.79190646071888 122.8143877921
38.640209895654735 89.88174049891572 111.1797114892
49.59081295854234 75.10841702686422 101.1858239916
108.61578546547271 134.1015214991504 106.7072982666
111.47492673372288 77.69381692174615 101.2218269875
88.16254199879113 133.9606432111741 134.1650819487
52.32187510916896 80.81805240523698 100.6152062809
111.3723220822327 82.91794635768697 101.1157771901
85.2421684697255 169.38894499108721 130.8992145871
107.63817030353067 35.98466251997375 113.1574966835
39.0357280311628 39.383227255581915 118.9106513102
97.29119464849195 128.20279828304592 122.8916453185
109.276230438743 137.22276172031826 112.1283498379
89.74351427920696 173.65036404733445 104.2398387494
90.1645446239456 161.95842573799317 133.5751481568
40.75651585023617 92.35373240248205 101.5593703801
89.0400583353744 93.3232197868339 101.5419181291
62.780499231879745 91.70243521321284 101.5198693364
78.47989182350773 111.0519766350768 131.425630777
89.6485817333228 95.79067544448188 101.3368448647
61.74405164475549 96.55163282993797 100.7756429098
102.22971591877338 49.36264850863361 113.6374367424
112.98777427176366 35.70397583759326 102.746004797
81.55112596675247 91.23442130236519 134.0834089604
91.55116540334855 97.04925154900833 100.9678804349
84.18664104641671 98.1985895309412 101.211432706
74.90759189419396 107.2144823467366 130.2111292758
36.33325658209339 68.61322522083579 105.477057373
59.046930256314354 103.07891422243867 101.0231445262
97.01524986823885 124.3224548388128 112.6643228411
93.83868123375221 172.42013959892756 112.1417712145
93.24548393475848 106.58439254388904 100.6613168594
58.36017731337815 122.53424228542984 112.4869597122
51.357128486239844 142.38182660077172 123.7851426449
63.879365120135176 111.68975073475839 100.8563657551
37.9941530919236 67.44285452680667 103.4458404879
108.25023428377386 50.87256642054844 123.735636518
62.42643178731375 121.97192840833367 99.3516175834
56.76447223690212 129.60101297622273 120.7465643524
53.6274788890547 131.9553574763652 101.1288949881
57.685744607825875 168.20329039123573 113.267128856
119.4047200082845 135.4946016852109 101.1096453216
34.02347105279989 142.17351398085478 100.8317935873
33.421008028848746 145.89268468649703 100.500158355
34.541753574832875 147.0934763055863 102.1189201433
103.15930971427764 105.66502109533765 112.5464182842
86.94009380617231 150.20490695288987 64.7029602334
50.58034497692557 156.51045248014134 101.2591620516
37.01020414720764 71.86600689624332 112.9345003576
56.54486379475224 164.94561183229928 100.3768570239
98.68814592944622 164.4459683546803 122.7867117968
39.77578844950849 35.39685417460258 101.6336817206
97.41831216184569 106.14827812566422 103.2239626627
35.10052866292778 36.395563309473246 101.5773617992
61.92380568895615 110.40640423428042 102.2410465597
104.24440251124173 99.67703656753412 102.3200948279
106.6327978889753 38.11373581004143 99.8163832789
45.12658313578066 39.41188535848683 101.6461256557
63.59225230414815 158.66682192817768 133.9403786096
103.30888742292656 41.48582962464019 101.5813463229
33.95180152890569 41.169244433469544 100.103516922
79.10881185140474 94.74299728573635 112.7877215978
40.772033936318714 44.04821248796051 101.6368619573
43.97239958095673 63.84770565956743 101.6319713987
82.8065170507701 100.5167392496434 100.5359798656
63.07821542850106 161.3575547055629 131.4753306205
69.71665375654703 176.81908795858044 92.4481857278
49.90496630816408 152.47403556463587 121.7908281391
63.89378489077136 93.70718100057647 101.9319268351
51.72145656815657 65.25376980122597 101.7853503783
79.55441852423463 178.37265880668718 97.309207331
96.78692891255648 122.99566916299776 106.6662463566
109.25752977633697 69.6219313951043 101.4692260921
83.48255297733532 123.89503257793044 133.0768392013
49.08197189885651 71.00822681827233 101.282677262
99.3627078212154 74.11700498747797 101.9553393361
50.345223227674325 77.45849947044016 101.5215659622
75.32970179165406 96.62279079085525 133.6716110764
95.18210147928565 82.2188974355135 100.8440892152
38.44568946251848 84.36697561615433 101.1332455913
53.97798682639072 43.865977820116186 118.9313989658
57.96300972975134 115.03914320328455 107.9908319714
39.197742541485766 88.2139078100239 101.6766656854
109.04444583744845 90.44463474783254 101.0257383975
108.40895752987494 94.12240797352011 102.0888435785
112.83970036024735 135.57637064088826 107.9692313078
43.267217307689215 95.8303468529542 101.3279777745
29.621734679791103 35.92427183968874 100.3446647656
63.73468161451481 95.98881903626712 101.4503827146
103.92948789258071 97.77713344739195 101.2442114555
45.551002770600746 87.61393022553787 120.2988232024
47.105237001258004 98.61956253525958 101.6884635002
68.88829219400182 98.44190232001006 101.5230728761
101.43329990610975 159.51239496432746 122.6165691333
59.52588559546651 127.12253798527559 122.8580919002
57.0753344260345 126.14628869320737 102.13426961
80.32985841943673 176.47892318142135 122.3626860526
100.75329786823771 100.61397478567463 101.2493571246
98.31155409963354 102.21930953284703 101.4677966938
61.33290936252172 137.00522412020945 133.8321713386
112.47266436977856 92.35220829526278 107.4218081008
101.08098099505088 150.41343887221694 92.6092269785
95.94010486273586 103.7221076058154 101.8363563403
58.8668755759783 104.99844928667943 101.5018091728
97.25067705926458 124.19603981532794 110.6410476965
59.33854958536954 118.79310758097832 121.998199004
37.0380619460212 77.48810347687449 107.9236433712
61.58715787071496 121.10977971040008 101.4370229392
93.99953953376615 76.7426933566158 112.8702527027
93.69209616137309 122.09729043449224 101.4193346675
97.112378048278 126.2129582048063 101.4482325258
56.51536927651978 113.47464586436263 112.6410260264
43.64250252847965 52.01890324366559 106.8482550757
99.65279707096886 130.38106062881977 101.5934482743
108.7520537729811 35.48229598828257 108.1351713788
94.42271761671125 74.45658653355942 112.6060467474
111.99780390112832 133.63367028438074 101.5285150561
39.01559126521903 41.506895806645986 118.7891997246
113.16334672447252 86.05224085077754 110.8607208109
45.80433011502164 100.02893424836593 104.044082914
93.7279076089136 70.17605628949791 112.785160209
36.43772689197508 139.37259617806328 101.3292841843
123.78228600921553 142.70915628231091 101.7974327748
123.62436797113276 149.4443723110815 101.5302814931
96.20068017427626 107.30345953338502 122.7055041904
77.88491218663586 178.24557152405748 116.2830322247
42.73119870210607 154.60396064493668 103.3794481832
104.35098247116454 156.4689681561602 102.342086389
58.40409876552133 85.83242581564355 101.310039574
51.783447812076524 161.40744719399413 101.8964680164
62.707085020220084 174.37996402901513 112.5524018591
91.86309803674783 52.704802726818826 120.8537535168
96.02200290068544 165.53351707675532 101.0205157642
56.705124081621264 163.8252465097229 122.5278979843
99.78032643194979 162.75679863169202 102.932467867
63.609924863417085 170.90227208265372 101.513382051
89.26857309353984 90.03988450400128 120.595844655
91.74493385996 64.9703074834645 119.1511431038
36.63728089471455 66.93310842842368 112.3055649058
80.2200227601468 178.8720398802323 101.3854527742
70.8131020407779 178.3100639361137 102.3576194288
109.10752132383419 38.89668233237714 100.9588964205
105.03248786988433 40.535825326176564 101.9288212058
36.2042705226655 41.96404878714428 101.8612534444
44.657706347619126 42.11054061045304 102.0294791765
96.13125895925464 124.5959081673547 121.0938134856
65.66501507484392 174.8547079164047 104.3394724168
48.42768741586278 62.038644217456145 101.9994757156
46.92272089395461 98.40260797318825 122.7362207956
52.4077873081696 71.7057521614353 103.0788515242
49.87787203582822 63.774927143763 101.7188077106
47.44492678763927 63.872381332838046 102.0063572654
48.183841139405544 61.23760383088324 123.0324614743
108.75127993115896 80.89776744495902 99.5340756131
94.57716814972233 116.61647225085561 107.881437395
38.243136890034776 69.46187795683846 102.4205275134
52.211769491571346 69.52137757368473 101.4418696051
57.0461212219618 57.36167553042057 112.6101299711
45.96919043767954 95.57800305955912 122.2875145956
109.79802625419379 57.0283314415625 113.1634858615
87.01344605434755 88.51203538574345 112.5663872609
111.58042290259687 64.65089051659425 118.9795457345
105.48327176608049 37.50128737159865 123.4981702252
111.24541064673576 80.95188154366103 101.9452096577
98.82512450344245 80.54917160482809 120.481301432
68.50416643226862 113.09563546292046 130.8694953869
81.37571868711659 178.8258550482962 112.5781923588
66.67652198961258 114.18762643874493 130.0147793644
61.26807169037684 88.82980654001373 102.0064091073
88.65389535778026 85.45557125832643 113.5118217814
42.71952966000447 70.83447311236978 121.0518597167
88.41804269699803 93.60516174299144 123.1330710137
103.98061585077866 95.78839292097491 100.0562558799
49.392336490441586 62.95904990711436 122.2875822771
41.758569357573506 94.53474868641885 102.1826085909
56.83314667178524 83.58576565954348 120.4888348325
100.30469545585848 51.690278927038236 112.8679728212
38.26090433150793 52.80930472116545 112.4558502549
106.20462171713609 96.8948385220016 101.9904288246
63.8132832194333 97.96810744261145 101.1496103155
54.555839137486295 77.51172903590528 113.6919086864
80.56099710110198 98.0698214629173 102.1407235709
66.16906447464166 98.55381028943614 101.7232529855
88.38808445495648 127.31490123608722 130.5274966482
102.56021767327195 101.23251399451388 102.3259864749
103.37570270600266 45.67130954675849 111.9670550513
95.36466382705919 107.62407979277438 102.0712969804
58.03158038653195 157.0350454017755 130.2319013258
63.00619998768666 113.56384187220485 101.8582517373
61.7738835181178 114.33753672318899 103.5231987341
75.22061382749882 128.50944612778324 133.6877024958
92.87114004442579 119.70710256793842 102.1537042983
64.01375843197775 117.35965859170524 101.0801759028
98.34534585306561 109.07321705579218 118.1315226123
97.34756038943863 164.10825937400938 99.1846912718
104.55410129115236 87.14097775739886 122.1810407127
61.281807331808096 156.01835296333834 133.6749625058
106.97288454787633 134.0279691473221 101.4232809138
109.79358410057064 44.31679262295981 112.8851081021
115.22591630668282 134.58039257613513 101.9416129825
117.33628815560772 135.5436221769842 102.111980712
49.29116836031848 158.1914575442639 112.0550496688
38.502220555294755 137.1996364781553 101.7219433725
63.887532551213 88.24088501043765 107.3870088756
34.77151811693977 144.92527076847165 102.4925878657
59.38168573575239 135.17645921311848 130.6267629121
47.6876661251294 72.68194514956038 100.4546224706
36.84101128845828 151.71237354486814 101.7449865495
69.3322917138808 94.13759874503552 121.1701153328
106.83178379668206 47.38247380262891 123.2112087611
99.50685931072445 75.90910719730772 100.8728352919
90.21595881104898 133.90522724474218 133.7100871576
43.32864651216822 155.5140680952147 100.6385328575
102.1524698949715 132.9682188386876 101.7607432438
101.38713725081004 160.52392764500658 102.3217386034
40.57481068127372 142.41199430127688 108.792866422
57.29099062119093 165.3278418159327 102.1339811618
94.60801987195214 166.66740007990597 102.1180379954
91.33997689126922 171.95246874984434 101.5250954052
114.90995106671568 39.91538244502668 112.7763350162
68.60463347888751 177.1671423635135 102.1182776923
84.70210744986198 177.60167018211877 102.1543734324
37.542595629606225 35.46725791796149 102.370133853
32.614364635551254 35.85427910037862 102.393035893
26.890326443882138 140.35514890791285 85.0326352884
45.18898711326191 36.47472102771218 101.8105963446
25.200362007966575 37.06293020632033 103.153369405
101.84270218756465 71.82872960828439 122.7300147549
29.133371340281705 37.888377365192966 101.5813205441
99.55355779358243 53.48656535999909 111.281741884
91.92444050878184 54.108641870723346 122.4951700621
109.36887245843921 68.39710671106339 104.5112920111
51.00203855501522 62.17687693541422 102.501922504
53.70271965885856 63.05425318714377 103.1813829122
52.380581209583305 62.0005105072904 121.0801103626
36.23167800971785 78.04705216300755 102.7508802676
103.20818612972087 66.97263897648759 102.2855001971
106.13931384662958 66.6853496597183 102.5625631038
105.72659732231584 68.73398892636371 102.228072828
75.53596444296856 126.40000432841731 132.8972420337
39.48224601027223 73.8990467168171 100.14345157
102.13084925123457 142.07196212848885 121.492559143
100.7093767900126 107.51559824862728 108.6226048548
101.96951398125094 136.94252533682965 121.5124281572
59.317029487620715 169.96049384891577 109.1543315706
54.21886270770271 81.54901214625754 101.9395041675
57.40330144971492 166.60788287738475 119.4757744453
38.13019807905916 83.78465406641747 103.0010949781
115.90402187865229 142.9881573554854 110.5798089664
79.2008538818047 178.82498018948212 112.297915742
39.303585017037214 90.43613608432105 102.5802985996
81.8388964138956 177.529300307778 118.6447179732
87.66025707295006 94.86023766612259 102.4346578726
62.757247629876424 85.12970176713961 117.9872229805
93.37847794224375 84.56925725197742 120.4627826836
95.3274254251649 35.98713286263836 116.0778680629
73.34732652550568 95.60859257393727 103.5323503421
104.65033930386922 36.65276580277252 100.6018740247
29.924704655967126 40.11665421406725 101.6401103695
100.047119904618 102.37935781877931 102.5459681627
37.275210168130755 79.64461558052196 107.3285158096
96.86385041613579 72.70541922404479 118.9474109171
62.06873509103038 89.56721862984693 122.6412002105
47.42018078871016 66.68606944923742 101.3576254272
92.42532834442906 110.5070322825373 102.2534016481
62.82645678131162 118.34746520250866 102.742961435
110.29580168870365 60.94779820371032 122.6003154249
50.56866741333873 61.296354335552834 122.3736063349
102.79844488680163 84.90272653557602 121.2606926318
59.04801690322603 108.91234335060847 102.8179008374
42.86947960323946 61.46555507642147 122.5088507217
79.53005119809885 87.60969264398761 132.6782003655
121.59986894667448 136.16292941324795 102.3365612192
123.1574769396311 139.14559055292892 102.523905337
110.07673193244977 73.69636433197346 98.8785916728
106.8189615897096 97.76531205786155 120.5972311547
57.52785758853771 86.44990058977503 122.6073050517
117.03741255050411 152.00043536434072 102.5291442892
50.1512212238754 159.82335340313784 102.4534441983
100.92406265597936 85.13289160000505 122.5494359069
47.86201200495978 54.40202645494679 123.1321435766
97.18720235849212 164.72345167604055 102.4945830433
92.70495428843175 168.66876707383477 102.1756683148
88.20475574301503 175.48974425871847 102.3337974922
75.70937984148055 179.181483908803 102.334755638
55.848146326390086 70.97850738570696 107.703986468
22.812767462745263 37.877620344750824 102.9422592907
109.05437994554485 40.918363712452674 102.3585529507
100.13552634380545 40.43065420820875 103.2097490432
111.61206087121097 41.5282538833917 102.8109986495
26.815836317706825 40.50524529367607 104.1971795451
99.18337268086046 71.63038224303264 122.0997950661
34.44750672623363 42.883349435215024 102.4513548448
43.12548523953987 43.652095187077066 102.83862271
71.14145818956266 166.85211882384277 133.5138121557
46.37187172942476 58.11524025392083 103.4010646912
47.244151265006366 60.07478993123393 102.9005642926
40.380217863030474 62.8893444423792 103.0050105845
45.92987117828375 62.74677943984755 102.6949412741
43.94124338894139 52.95383593818828 122.5927782433
102.7297893663885 150.9782224965231 124.1019598197
53.48913989096752 66.19418089703552 102.2264526378
85.85645679287113 104.46787915762417 127.7186847607
44.53538440664599 48.883183672811924 108.0688464294
37.936650952668515 71.50873987268842 102.3121733188
36.298058969565574 76.42094283985759 101.1033515616
43.95060506199575 92.6456720301909 120.610901721
97.0379941047218 76.65391696057465 102.9020782825
111.51827228833426 68.24118645851681 107.73246848
95.73357052734889 80.35940187602584 102.0208363501
58.24193319852226 84.11669798587475 104.0199893828
47.27026765568644 66.32511388334439 122.4685327031
56.4840348559775 83.8391668688337 102.5104282925
84.46457569791336 108.66538281268666 130.1794484036
92.69701868245357 85.16177525229548 101.8239997956
60.31668334529388 86.22376012018191 104.4014935088
110.91030177526888 134.35453098917367 107.446751811
53.918531538351395 130.52663127690104 111.7535948941
97.01812754711868 51.430850526292076 112.6558936405
110.19968288634121 92.26883957102135 102.6576384502
110.93772620834739 90.37057503444369 103.1566570337
60.77012814830082 133.3693707325699 131.3788029074
103.98724924169613 135.91593153428983 113.3490946543
85.97943931766613 177.72852320522156 111.2671245073
87.484193239011 176.85323841872662 112.3355198372
90.29093557581857 175.06175085064768 112.3968645093
105.10095607184212 62.89854582217515 104.2049586783
111.51740435534829 61.76256972426231 118.933235351
50.62447159284862 102.34429649648737 103.2597165502
73.48315110201284 94.71046008066048 133.0971212987
74.28097349773834 92.17296854736031 137.5210228869
104.56682444611195 38.01315592254457 95.7782737707
64.71383246438815 89.48711978437277 120.5252692647
57.56311707715153 117.10185236179736 112.3231389733
67.67187696417378 177.18377871782798 112.3684868953
53.07959553613321 158.85040619395457 122.0804917963
92.71990972321385 62.595519439030525 122.6735291941
58.70584075580739 107.00371385728737 102.0531365375
107.23598995606916 42.34449960328351 122.3793050294
24.636088803245684 39.962960465058586 103.8399099
44.63135236368654 138.35709025101636 108.5835210838
54.34874798895527 42.205624383567454 123.1003181995
60.522681420161135 123.14693944429884 101.9525110797
98.28576165387393 127.21062064182357 102.7256522013
53.885146612159076 130.33002286923352 102.6466294156
103.42094963214062 60.374128815376466 105.7721077393
51.249722322601365 134.09729413974793 102.9986427658
42.01175848001351 135.72252772840278 102.8076036833
88.28429549337017 166.72581714073613 131.5751754829
77.37864595616742 85.94633344033758 133.505084886
112.17961451060128 72.18814432104325 102.0377356704
121.11734369047842 150.48564466546972 102.9492184075
113.3907347804606 153.0943469950594 102.6090512144
46.682094325836445 104.3406259384583 111.4598040197
53.83992916233298 162.16944025838797 102.6249269525
110.15319255514282 54.84159644793772 118.8570223119
103.44945344059819 160.1473944578927 112.3427607515
43.982664318041884 57.25627927078503 122.8227092161
110.02416544887336 58.00711104524362 122.4149719823
59.11067081459944 158.8345261402643 130.4842403325
78.58291670056767 179.18023165246268 102.8904912477
110.1030136434932 35.47469756200107 103.1092580183
55.6184780650739 53.33076838642863 111.7293947562
107.91918714410821 37.185946767417434 102.2273627111
114.15253025595595 146.7815658921691 111.864213894
42.40649641051621 148.96240085950225 109.2702521619
96.6519443592478 36.025982706864 112.3589866723
38.91152016569356 43.18925889911101 102.9089048039
59.297815022406276 151.69945125987087 133.5623081365
50.973476883514756 103.86673438245073 121.4739122115
57.44011332805149 111.49204635435999 105.9402119548
51.11042606859752 60.14143600676855 103.3618442107
69.49365706701536 90.9081918629262 112.9516765277
43.59184428399231 61.46464360383041 102.9544764233
98.78448774883266 35.65762135030495 107.8528370354
103.56183258949656 64.04263587996314 103.3969865295
106.99692528578508 64.14933029805854 103.6554880056
37.517107841086144 73.81687199406518 102.7399227442
51.56863624288875 76.3453347995694 102.8855963083
48.96371978040038 35.62653203609541 112.6544658647
112.60230069860314 76.26959552492954 103.4493779745
103.93877206058004 133.97692483151252 101.5989927248
36.85551283457951 81.15652805745513 103.1731042058
87.02261455848654 164.43873050746095 133.0097808275
55.57151125937551 81.37475711529427 103.519113525
81.36183302569849 93.4224311488467 133.4760917111
38.083436596946775 152.4760570183088 103.1630208311
93.13008369674482 170.33767116102194 122.3611631244
45.85764185032525 48.852707456526986 122.3608711005
88.33711472038611 89.87430075404271 103.8664104203
62.56158887559628 82.88480511307795 112.1165755605
39.77170125677198 82.31695298404557 112.2351726746
85.62405725673 94.52567936645103 103.0979739651
109.12246914491473 95.98352663065091 103.6595835806
44.84874252135419 50.9858395040219 122.8057266239
83.10216860151493 96.46324499734625 102.7173522606
93.53234516978952 140.65350760459512 133.6061680317
109.4053866349214 79.06623144840586 112.8000320345
98.08388575754826 103.70960308707048 102.8099592487
52.41804889884169 101.54836369167734 102.2169119693
75.19038041110572 176.54044240441198 122.0917518869
56.47711791778636 106.74019737871913 103.4113343842
44.631695331193654 96.50378743204315 121.0265340489
102.39153619662164 157.05413692388956 122.0770697061
112.2463144541669 79.90892617345163 107.003080854
61.86744831619396 173.38980808584185 110.7701880065
62.93384801644102 115.83565809238645 102.3914144718
54.85897531783844 84.79620918981729 122.1166573912
91.61817855003409 116.59465082994643 102.6459449381
111.67383142618529 149.87999799668603 112.1596228481
96.66128714385371 123.89957047105405 103.2798136588
110.82128982916028 133.77638871310327 103.2494212654
49.526120598608756 147.57785785899932 121.9908241197
46.69736631026273 135.36636986717085 103.4049233598
37.1622101741045 62.26480281599434 107.4196749229
37.370830687617975 139.86924432172935 103.55479819
35.603953829354055 143.23430192845632 103.2692018454
123.59669804210566 148.71219476728643 103.3774314393
119.10160833738473 151.19558878283146 103.1795178529
40.89903767407003 154.02336233549732 102.8599280509
111.53463313086584 84.93411969187238 101.6459688835
42.14821570729125 36.390000613916285 111.5511582656
36.99895512773614 62.68061051968603 111.3319629747
46.96974241112095 154.56882422316696 103.8086120655
50.03330123764632 157.5155093006366 103.3579244237
42.17778484423958 99.30035108461024 112.5995413724
42.654181430600616 49.7471727659795 107.6952855125
71.27600438913431 106.16136749334709 129.2220774913
51.87379242437511 138.28307363097747 122.1833498252
98.11636715662559 166.2283920255226 121.5206756918
50.74991024696698 73.89440879198418 102.6640197399
48.273626999319745 49.86580374899627 107.4674752115
101.86612503612255 36.21726477167894 111.9226569234
81.66490772742938 178.61776295674096 103.0740721695
101.88452274576998 106.54722596268911 114.0744873101
42.901044401645926 35.64515770537254 103.8800774509
108.07453503769747 35.63158454329101 104.290795556
96.13185737502614 37.958885578841176 112.5341637995
100.40217637038786 36.31991662480954 103.6177444852
97.63464639660344 43.60704538540983 111.4166466615
36.53874303076836 64.53084397672433 112.031477691
111.61925379530012 95.59847660243153 112.4300186621
82.95522008805897 92.65799360853212 107.5985628988
91.00790835113162 61.55884531398546 112.4766262354
49.3171489534747 58.289169484939706 103.518878931
96.09362449235651 73.09419785305 106.8910100251
95.2637121018046 123.04940012897188 122.6270557477
44.6118661295468 59.89340739211476 103.8910103762
37.93243990409816 58.51374009587845 112.5516204335
108.02280772949852 66.12997834120114 104.0749815105
105.40044244870114 57.809560909300075 107.462420049
53.4108820861744 69.91837856238821 103.2064307888
101.26841119650871 69.35671444274344 102.9222202901
121.92099515100668 141.229344645313 105.3879965838
120.18276299328716 138.68149784333937 105.3145638984
50.36178854964783 55.31458262590759 122.5059919808
52.636801283156885 77.93616676940627 103.4937647536
94.87105094179692 114.0743158107298 121.9435439718
93.87106594920009 81.3304375435778 103.176937092
90.04950611255768 166.27912812861837 84.6113730334
112.36410114652509 85.07042198173059 103.4995872279
109.51817319456404 42.83505219530919 107.795158403
92.70351854007379 81.67631468583855 106.1525004167
44.53784151191809 142.58975028530108 110.812964695
89.19307530597739 88.10941924886765 104.9884291273
102.11806619959304 52.950947488162996 111.768641398
54.8295183901803 51.57604946149067 111.5556865407
75.47397595061321 94.40714909764304 103.755400107
41.258372187343454 95.43155383632265 104.0110643594
54.630932781632794 49.64123981470118 112.9642578999
93.28155314640883 56.0849793098227 112.3489415101
68.42133068969278 96.60498271039975 103.280815737
95.38596382290243 76.21331598814838 105.8279924562
38.80897272119257 92.18445426347292 111.1699920843
92.31038860263557 115.08978319946719 103.8706379558
50.54386559497606 82.51674495006654 119.7986973969
61.11760523307394 119.755920611929 103.6144452453
58.91542771154457 123.04810634198758 103.5932443596
57.05729520248386 125.76888048980676 104.1696936415
97.45275045284771 103.62197458703541 122.5971347203
105.19928948724694 133.8838356143655 103.6229085482
113.46786476521125 134.29002345606324 104.2685115425
92.26851789563949 158.9562646091071 132.8289516345
119.34331746731729 136.10164999138004 102.9934918342
103.57909225066047 146.93468201590127 122.2401425926
123.58160166001174 140.73319251675994 103.8234849946
124.07669959545022 143.84372441974807 103.6165765777
35.9994522100664 147.27973626490814 103.7883713229
39.1552190427724 66.353235528871 101.7858917497
83.78587223512845 95.04216712157786 122.3609374902
55.870304148895634 146.59353995848073 130.4270068471
55.70310750958237 163.70302597224625 103.0923297474
71.5198662017882 94.90784842562275 119.9572085935
44.83099578877592 102.51897189656307 110.9109985873
45.12475204791041 90.68937439303804 121.2587724225
53.18422237322261 48.271815659448265 111.7224806528
39.07842202732181 36.030736580945614 104.2977079534
103.68646439164407 36.014832246551975 104.1100147415
93.95637033837421 53.8743905696369 113.0972259426
71.16577739672843 124.90790916921158 133.3346699397
98.6708576751468 39.25304606873834 103.938902869
97.20995979404238 38.61080663809969 131.7306147654
55.416390760013385 131.1583016538284 97.0322728412
65.00533991698832 90.67247578420282 106.0803763067
104.27121991860443 41.255222049393396 104.0999622906
109.72167101812971 42.38217553322623 103.9655831468
72.58082271912087 94.13919722652385 130.7478297007
42.138440049167315 59.49438196044441 104.1847687933
37.897745560396885 44.897802537983665 104.5129030315
51.629548315995635 58.21740852634042 104.14376587
46.04440898636996 92.42454638586086 122.2050683776
84.5364688880263 175.47440171585419 121.9597459892
84.63346505476497 167.3019078508499 133.0157919539
96.51838106567915 38.5650137458357 110.4569186243
38.38040518470044 65.39651818292106 104.0088291697
74.13888246435664 179.51464646496555 111.9489266343
99.53377401407104 65.37986658310152 104.4279252362
99.33938940165174 67.86249860178228 104.1559355009
95.69914371601332 119.74540241588298 121.0370858645
36.46725762637839 70.77119034236874 104.0625559912
111.84899278574991 71.19303136205104 104.1758112774
71.26892377290602 122.79778602395444 133.1741300439
58.08794441069409 127.60177345397152 120.2840611709
112.61280722689233 73.27716482026378 103.8493559552
97.46007036129394 74.55519826138502 103.9601288042
38.394219191240744 55.42385518955115 112.0436699554
47.21178764644284 89.18623590649085 122.159619089
82.7169093416718 130.01625043145873 133.3965968588
35.79808613864921 72.60691127418025 104.4369807336
98.99835822281712 166.48773928640202 112.8820981557
71.34121965813883 129.3834130621874 133.3340419622
56.17432768864907 126.95990810926585 112.1832866568
84.62986279119208 121.65238665599628 132.9594515421
86.74153094737127 92.65223268994333 104.1806701042
96.41694785416387 53.81973905111356 111.3441340772
80.29150083120307 96.10018513314976 104.0907798103
50.03745449742002 160.2005652488543 108.2512009798
43.6452588611183 98.65274463359928 104.2146738508
107.01708192058085 98.29409164278164 103.4070812464
29.582800837290236 38.065549488036666 112.571251505
50.921745160706756 134.12749972045833 105.4590552436
103.90140488711627 101.95529523583133 103.9765874144
109.50746878937179 152.86843512828034 110.0031243346
42.213072917291484 146.44789571500849 109.9756532641
80.80696438331097 168.55246712906265 133.0194703521
100.52600803984672 163.85491894620384 111.6567838785
53.37307412228363 163.79678489609472 116.043834458
93.36263049727765 142.71278273225911 134.2898295515
76.56166967928796 119.47139587641112 133.0794305473
92.4974065345356 113.05965136288495 103.5440634978
53.73645408558824 75.90863927512282 112.3247220352
97.5450421752386 125.77998686045537 104.0563180579
99.44184469309786 128.30109311255296 104.1917320441
49.62989964500237 135.19705429555506 104.2417958034
107.89432028825584 133.74320809834433 104.1495025796
52.48400667833256 132.735322161578 104.8481000413
115.4623184893482 135.4234200695919 104.5037383195
111.82278974966971 75.34912000635538 100.5651546958
121.99002111744994 137.65378778188222 103.8566444443
40.294069262605824 85.7206534481556 99.978341614
36.69065940571775 64.67310407474119 109.7782660277
73.17307843189634 104.21175049075423 129.4572827131
99.78105192647712 163.03454140410676 104.8955823403
101.10497652437039 161.2209665486965 104.3516137733
58.420166821014924 132.19781380808405 129.2291482194
60.425485522131865 168.574453697094 104.5249880069
43.10890984857794 101.23929604635894 112.3330538191
45.85835752830128 143.94164539970785 111.6451980533
42.99950591163621 69.025089809111 122.31938884
67.42592260434122 175.41073204870085 103.2006528809
45.951570727429996 68.77748954121904 121.9526424447
88.76504030630998 131.63086107652165 133.367102066
36.85350283144022 35.77491443312735 104.2517272289
113.15309855002022 36.65372620927417 104.4897290281
30.642970682560367 36.52577062016471 113.1274875449
66.23624621481716 94.14155874432346 104.4441712918
58.50086443546043 168.54134381479204 119.5629370374
46.32973256545013 36.30535493854947 104.0533487389
45.75015647856506 41.47006674957443 104.5876804161
94.65556148977342 39.10635864541035 131.9608654157
71.79602644645779 93.30211675028124 111.5240574033
100.13581997357329 43.08451478362437 104.6832837772
111.01039996607003 41.57350423376495 105.3965469584
94.15685981715153 145.87739540029918 133.9336684805
47.144605808474495 56.507820726359924 104.4129641416
32.21887870027181 41.37602737459004 104.5569011226
43.47740259646641 57.53718778543211 104.6696340558
26.56543478810633 151.0887268661303 64.7462179006
110.23267126174734 67.20188456783657 122.1497228278
54.511803488163636 60.76104556844579 104.729941263
93.1250933573875 65.37700384192317 121.7269813026
55.29503378305722 62.74708785698595 104.662460968
101.16882893209905 63.68784785922175 104.4293623888
67.95498635970819 165.45491652464813 132.4166212975
51.59941778088148 44.366296851714694 123.0806221559
97.92620967860738 105.50152948611279 121.4122754234
53.8145596065922 71.54852309779452 104.4523091522
93.84063843920805 157.55119418985186 132.9359938954
92.05906193404984 41.147688867244554 120.9989605758
99.00585731671792 111.59267713791802 112.1080891124
69.28158032805612 125.87882979621781 132.0841316301
92.11095625401157 57.56757211453437 113.1058861128
63.26923756213601 173.5725299540768 107.0022609623
62.29237416762733 87.58518479338984 105.462585555
38.04106496277899 88.77280157382975 104.251342755
64.56590562570831 92.93856132344936 104.1402571632
50.12871440252475 86.51944586908557 122.2183637105
99.78686619874745 58.91107965480411 107.7425169638
82.67510396497833 94.85262875479103 104.5459256117
70.08755977757247 96.1110269364728 104.5523044492
41.892333311005395 97.33390262725459 104.6439345718
48.80061239921184 102.22798487264465 104.3780925977
111.37847334801845 70.5201950532242 111.8305372358
52.105830231132785 104.07236657304578 104.4796725652
99.29532234780777 104.68355573364863 104.2598050819
36.52855951819063 46.45838538743436 112.7183890839
50.50731995577763 52.66373890424981 122.7665258454
97.67413987240229 108.32722537428852 104.6626538231
42.15309345721781 54.03714078843255 122.0712262277
90.72783917004176 132.15771456111824 132.6376270828
96.26375629111841 62.35876760903239 126.3968099992
42.15703025739292 136.70931976641594 104.907615515
50.20638207070612 155.4564717674272 102.9877138974
39.21873413426202 138.25326732574783 104.8812324351
92.40411044170321 79.62900354257563 110.0000084908
36.965355621576485 142.00231593047423 104.5592561575
121.74873388412192 148.80390840958975 104.1789207108
53.124727600057774 158.91078152139573 96.7579475539
47.44534624755379 102.11900971330495 121.0457102133
109.52487428947087 154.12970743294332 105.4479866829
101.60895459922638 107.04238674054571 111.7605843708
117.28903022252169 151.1507561616582 104.9282222159
49.89945133552662 155.94111767157895 105.0277376505
46.123746301316736 146.61533678897376 111.7337899416
92.81903290144497 169.9846533770161 103.8852290341
44.05530549313258 49.232739590710565 121.7211503555
54.18596539230579 162.78655557853492 105.9488068421
40.244522883215694 96.09479271442115 111.4057916659
80.64628861852852 95.50333717605366 133.1259745709
79.89768228072514 178.88178850538117 104.4337899239
31.79045944011189 35.91415319333946 104.8818192111
46.702734791871165 38.88527378028198 105.1414695021
85.35582428358312 93.57748952583754 122.0225220315
104.27273241456469 51.50469148679366 112.5673592015
107.79937063371098 41.96016650285139 104.7636861543
72.47837835791924 92.02241483930317 133.1385856195
33.893665540404754 43.24119179033343 104.7309279224
50.86392674630632 55.50260874372658 105.2788148511
92.17631551604899 43.15926375394437 122.0509557954
136.46420043676818 153.28346961756571 74.2719854224
97.18463538169556 153.70311407805593 130.42888903
96.75339714149892 41.22845123294296 111.8664716252
39.92110865012595 60.653782515370935 104.2747501276
34.6358903500287 160.6637315168265 75.4352106113
38.216656424285915 62.38967793068611 104.762332981
99.44863740698182 103.43664081448965 120.4071660687
56.14577086917392 64.90105697413148 105.0981588844
81.97804449091572 145.31813538155575 84.1979245935
110.82720351215873 69.717322481917 105.7495244567
91.54010468245308 38.191506892094594 121.8511134624
98.41931601816887 71.24231021105534 104.6121797776
52.37976015268575 73.73897452395809 104.8086761192
60.535563422840724 110.86705879065931 103.6816519328
95.56036409218433 77.94554614692953 104.5610776598
107.80867955596308 36.274348934670954 121.2254585647
113.38754646992535 83.77517355827025 104.9829209531
116.41975482833219 39.25136170616159 110.5639039169
38.96700403495325 92.14389968350993 105.081437845
112.27731644111321 90.71136077517104 105.1310734925
35.772516266345534 148.8395895413103 102.4542184998
39.68821850661232 79.97091399221705 111.9303282611
77.15843206246284 94.55007052038829 105.1538127171
82.33736115136927 105.079613299424 129.4544954244
59.953625240520495 169.19955223066808 121.1424011612
51.968321215257085 46.628376453703424 112.2171846205
59.54966098554521 112.30934984645806 105.4322556965
95.12405025096747 62.060717907406925 107.2205981555
61.395759839892946 117.82392380176181 105.1495553467
94.16417924122963 119.94830840309362 104.7097462571
