155.42623950576373 -47.5251914492449 129.5916118906
84.80109143710867 60.62073483310487 48.578628131
87.52501624923948 71.80224471670776 51.2681939139
117.55487804736583 74.08478498416449 119.7510606065
83.7447037703173 72.2980641624804 51.6623239484
107.91546771514928 60.22077527957687 110.013997624
140.98153656088365 59.12770675433515 51.7041541304
161.4627391472145 17.53562099580371 119.5403223143
119.67121642342958 39.620930154619494 118.8410273494
84.77134270260393 64.71136852586379 51.3300262387
85.88216564589683 66.92633762172204 51.6378971086
85.24165361970752 60.32181357994518 52.7522331625
158.97393631704375 70.8226464474935 129.1254073762
88.02094884008743 75.89130551350584 51.8727930942
141.22716811515687 61.42970412037451 51.2700880231
202.103240829334 75.74245766223312 63.4908090162
163.13279144309035 58.64100358749165 128.7266374209
163.45196079778287 -52.92158889334369 113.4083724055
85.5575977629317 76.16470642118148 52.3464810479
142.50658761574758 58.30232690495701 52.706537714
80.10262413733952 60.43424081740795 52.5805031799
139.41164502655658 60.224233929833176 52.3959316052
167.34546319989556 13.630771000635079 118.6094051589
81.52177102101967 68.58098655683291 52.3740509084
82.69759078314222 70.17798303076728 53.1772092472
88.49035574012171 73.89197134875961 52.4453220686
81.24370986819059 58.933827110273526 53.2247663067
117.51773772754606 58.11559692313104 129.0821450537
135.73961027800993 -5.0909605568473495 155.4931679377
87.14083498690715 70.6628566703252 52.997349788
90.80085285897056 81.72979809643986 54.606374832
139.2721593030079 58.55870402595675 53.9303165505
128.9055640639557 0.2069947850795586 109.4750746776
85.64900264670547 64.57525434394562 53.6722057793
127.55269527058226 38.1226957428065 129.1174997501
119.88369985704605 49.03943056911771 129.1058967286
158.78237708454324 26.859837088154535 119.1650776235
86.11966672341187 61.82983557488441 54.8260568895
82.7443217927707 73.85921566274975 53.7173012419
161.48458043881416 48.087495939145015 128.7073648179
149.8493757688854 80.6128072654021 129.1638091101
164.46057869853786 16.62433787535518 107.1366142342
79.34116595100097 62.40883553916561 54.554215044
159.43623726493092 54.272812712109406 131.8433883418
88.48746865495394 74.85955541131366 54.4858558721
172.80008984126056 46.85720278357634 110.4730796389
159.1807090333295 45.20845507563656 128.9380003352
83.56227358044762 58.77261975972496 53.5531972563
139.33657606376016 -9.105237064048794 155.2024674371
86.31501592465727 68.94936200108039 52.4426092579
89.38166548614397 73.7701788777477 49.5450452384
140.26603708448062 61.40675307927041 54.6009224913
152.8599707325312 37.654082899716585 128.801072612
81.88814599993768 71.0205164644027 54.9757421936
87.64032153044919 69.86495128946709 55.1136152477
84.20214815100506 75.81962687500524 54.6144413367
86.49517835526815 75.98387901639342 54.989277002
89.47480871974369 83.26498880904823 55.0918173462
92.63317329447236 84.15954836409672 54.7663120946
142.7794818966173 61.95551089113706 54.8281468551
111.57811901542968 -7.006139245810765 119.2633483138
162.22346243832388 51.98901451349763 129.3656865292
115.27140378038094 18.28932377412483 118.8237618936
138.9035943206262 -6.582011079557347 145.8515344309
176.02497623468975 0.43656482268774255 111.0590372537
156.89825017359158 -44.928901144802644 128.4653298349
127.60024436089589 89.30364820626806 71.0698988235
156.46241373162894 -44.80113698088331 119.3279749389
81.91283139316884 58.42776222322841 55.5186511694
122.63660123543978 6.328772167254016 99.923085218
146.94384798883436 59.395229295319076 55.4276271214
139.2170515133688 -4.941372930035854 154.9624624014
127.84051482438218 24.249449000937148 128.7304002166
119.15204769896343 51.36996592487361 128.8706078882
79.69180892451898 68.30166578194432 55.901490751
153.37249081117034 31.254082599611834 128.7291341174
152.4281936121963 22.391146102193858 128.486610875
81.53554768694792 73.04509405160637 55.6271773417
169.4074118676108 -16.525678366910128 118.9776431993
79.21465671034584 66.36349973961012 75.9068794259
119.30947893341319 37.36207283278791 110.3043814357
138.01104372085547 -0.15717627493755515 147.9201802296
138.74632924658263 56.920269901331444 55.6910246069
173.4104514799593 -18.9015287317319 118.9256651238
142.89490320874648 56.92930810612604 55.8719299658
153.73047265448577 80.73594919554154 126.9114101534
136.65946116991984 57.96196032553299 56.0272372763
164.46875475143938 42.636584063243845 103.65415042
79.13395926624234 65.75582185943344 56.2902992055
131.8588361085906 79.00407947256271 130.8535971384
149.05316688533424 18.031922779688628 128.6734955629
137.14558278195304 -3.4692940203225078 154.7328858832
88.40883068876629 80.01582659546472 55.7162819842
123.53785749136284 -5.359371023342256 118.4864275438
139.99205124647904 90.52823194013776 109.446897688
140.1889422529779 55.871889014068515 58.0691063514
149.66248681566643 20.059723081707958 129.1751208676
88.8311839387222 73.80928835235008 56.6438634409
87.697211584498 77.48553717404566 56.6397617024
118.53131098171193 55.883695113334014 129.0569082164
131.3948445282108 87.01253943061539 118.9173497142
159.5052887318368 -19.878164768570883 106.7654183132
144.82950608252253 11.812007275385625 128.8477295764
141.9331824211041 55.31303865410322 57.2658136836
121.93387017378006 78.91602357123827 106.5944476274
135.50449565526367 59.555107692978204 57.0723846852
79.47664779129565 59.46022704272135 56.8832319276
101.63935111476385 -33.33846175254085 119.0520433063
145.5453260840655 61.421912278750874 56.9432951687
86.62441943388805 62.328831678284686 56.9144461388
102.69190016817713 -52.643408534827074 119.200911152
171.35603612282986 -16.99092194596048 118.8041859994
151.9768343710723 32.023435829525894 130.1341863289
133.87231079329226 14.865166514188687 129.195640009
115.74920924638576 -6.317962941471777 120.6700800959
144.4942540951887 14.117589990932927 128.8145430251
112.32172204999213 48.257505653022 111.1575270317
89.8016591382366 83.72635829952684 56.9731611628
167.01490223665917 45.29797910296066 109.7440486505
136.94830330230226 61.700391279715284 57.4270869016
128.71627872500673 90.44950397651027 69.5959092674
143.6808429732011 62.60703019643483 56.8682106105
89.22085853191112 71.27648382628585 57.2502218381
154.42680319677498 -34.32907133865542 118.6554984235
154.90743265860777 -36.3156451394933 118.7627028033
117.19804386869117 -36.46239324262403 119.0693564011
195.52740453393395 82.30074344570173 57.4042123039
137.31054500237505 -9.541655773373236 153.7137204874
88.08116785782693 82.83107844195327 57.6673857829
161.65633192929798 -33.29918669248076 129.0217045128
146.50335826933636 56.448804573717744 56.7317996467
86.14228708404984 60.06799872853216 58.3935157335
203.42577982242744 70.92619057272047 64.1070311194
163.01111086472622 -49.59238765417618 129.8345676869
138.54218658292757 -2.288418178771636 152.8374847808
87.73064995509364 67.45170851581334 57.6860905565
90.78971822894087 79.56604081308784 58.6233339521
201.86265447876255 73.49091440906497 59.2036181966
135.24215355236555 -8.966967723899145 153.8517588044
102.62001728032712 -37.72883395720367 119.1562473301
83.8279976820249 58.439501244081924 58.4194521698
126.83634022375327 83.2758653708415 80.2197510265
78.82829491815434 60.85095278240361 58.24527257
155.03396384828164 74.98028962822607 90.8079584512
193.68319531257455 54.66737433748631 78.0189545571
139.99163985868339 63.52177706644024 58.3584349902
79.03781835364083 64.45816467106613 58.1298821028
171.51256716700155 -38.472433681728546 119.0520472776
89.70272952893117 76.00099936231867 58.1737655024
83.94017512355205 77.10736000998102 57.9573310246
163.915166551022 -42.025319612668625 128.7778647004
85.93192185908285 80.52534265207139 58.3188079394
101.1673669659342 -23.544869050135382 118.8982178059
105.29094424001605 -39.61110635277678 120.5954823919
171.8057253741003 -45.927503621171375 118.784437982
114.6652977478793 -51.53472745934015 112.9134392717
145.10218953172725 55.5012407750427 58.7638922146
135.2117982661187 58.0285458095118 58.7494544664
80.10858646292057 59.08924114260058 58.904952708
137.85911636955822 55.85971543791419 58.9205766427
147.06839722438576 61.96558330295588 60.0675999936
201.14408672143261 76.3488567702723 58.2142156323
138.37611004091937 62.55234006273945 59.3803909256
89.10161458602715 72.67590793630431 58.6260037891
118.22175378388292 -51.53090608833665 118.1347957349
134.26569017438553 4.506926031952801 109.629201716
160.40335428847646 -53.01286587599642 116.6187662428
89.64565965953707 82.14782722409718 58.7735741591
135.46272313541817 -2.848298131535884 151.9975952415
148.59115880495378 58.33998241004964 59.2267178576
113.71582182470485 -53.26207238806564 118.8460161663
87.10745037170038 62.52413546679915 59.1835132997
148.1089970389078 60.795977485200616 58.5943546377
142.4362513679937 64.0901330361364 59.0514292478
80.70209866159553 73.48104029296856 59.0331359957
199.08767387051927 74.62722451685622 59.0066046861
84.67193886909516 73.93111343060129 49.8096315441
161.70156112423842 76.07533180877294 109.6382629596
160.47028376328734 -43.68259112678643 129.0388391724
196.6607300700789 79.21198371038278 58.6397803272
133.28491405081863 87.93927001612951 118.4256977822
147.41169237528595 56.664690978800486 59.1735322166
134.40826661210662 60.01855433281964 59.388302153
163.88664612428227 -22.74937578028424 103.3156312545
78.57189727408738 62.908242308688344 59.6935346537
88.9037146585718 69.16442277244623 58.7407909563
144.69257753413902 62.83346169427922 59.2270541114
80.2527332393508 71.29907859786078 59.2937396006
81.6947593678359 64.09090421244879 52.1328291894
89.47458003264254 70.69163763529608 60.426269552
171.9112707038661 3.174570243454923 118.9021504598
109.42185960346154 -52.73689998584818 118.8332634871
83.49792000470671 78.27000634278875 59.5985790479
199.51400279313847 76.38287817982469 60.0564341643
137.0451564248039 56.034313729763184 61.6226517566
153.94818731038495 28.177511291598783 128.4376421596
87.56527723118371 55.79383820156265 66.8102477028
88.19418105056695 65.68027155193909 58.9862223258
78.8281493805174 66.03669754686035 59.9612324517
78.84287602531428 68.34697297988441 59.8361677392
127.82942739719496 78.145159782978 129.1257302636
194.79689522360997 80.57139334316412 59.7636423086
90.2035410915155 73.42775499271056 60.2066263184
149.83316948030935 60.083995250346064 69.7708652292
173.42788203546795 -26.063876573314673 107.8779928759
87.29702354122233 80.62785090553258 60.7076965975
190.86703552266488 87.95083277209159 59.8981020421
143.7395368459007 54.405514234915515 60.3411019852
195.35294838864993 82.02252046639462 60.9642643299
78.9255291994953 60.434454977212425 60.2435483774
87.13748849184734 60.84736902218886 60.4360322329
136.2653939658373 62.52687556242765 60.1417676676
82.16554372347649 75.26729603121862 60.2496809336
162.84721182460456 61.579892719502055 128.6284742441
140.35383972858173 -6.925746807762565 152.0933068829
81.94337457918347 76.29849194872409 62.256077138
161.6812538721627 68.39087684974677 128.3752080906
197.30921827815487 82.45298384816171 59.2245445029
141.3408466566285 54.51809629057961 60.931559355
141.12445218323197 -2.3305713235201324 149.4578718001
161.18459623523455 46.15179615925718 128.0149291503
157.18283542111573 -11.48463351005195 106.775133518
162.30248140460537 64.31139079799445 128.7301543512
130.36190001582136 91.54272054700172 71.3283221213
88.23336811889558 63.450414866355935 60.8843483644
158.35298351983934 73.0788323392805 128.5572313526
163.46614079968185 53.641852753273575 127.5059553434
117.6419103281859 20.96890846530902 118.3941603306
200.62458790990433 72.22814768732366 59.9803578959
120.22524632757309 69.32461417990231 128.6675619479
89.5622342220791 80.13852951086375 60.3288114953
115.97887314845934 57.00631599474877 125.4454069432
107.3965632210016 -52.77212456537802 119.7093231458
138.76211350971937 63.40306168223879 61.3221945986
78.57055450645275 64.37288320176836 61.3761094385
164.90163964647087 47.37550736663381 118.4407814242
79.86720005595727 69.84094024198214 61.1799192905
136.09071347459275 -6.274148017440055 150.3188148992
80.36199135121667 72.44345437409382 61.1080136591
112.18314799624656 10.525708689585393 101.3270761233
198.86522143633945 77.81971154846404 61.7675974243
119.76531238661403 47.014116413670266 128.3773562403
192.34307570304418 86.15836434119473 61.0070788533
146.12449303309796 55.034336085066464 61.735133792
173.86399373380652 -31.665969612222952 119.863898249
86.58695232714425 59.504761172696966 62.4463300475
148.73346665679074 61.42209470883559 61.5363241107
117.39589531188514 39.83268915359096 105.4407407555
153.48311583589256 34.94887965327033 129.0723661724
196.61627246560334 71.10699826238151 67.0817869763
139.5762498717466 6.718166646667683 117.4029043843
120.36643215481473 26.1917594399565 117.7569518795
143.85723823763442 64.101432191105 61.083516664
157.86017438043996 42.595242936234804 128.7268110459
162.78088213607958 39.56436660429845 118.1912508724
202.61159093537714 71.90683698603361 61.7580773987
121.41221684204277 41.13642746784252 128.6684459861
91.0667761663874 75.07045791029658 61.6113127778
116.01286474547058 63.51108863408307 90.6780231382
107.60618545380112 12.96800763035089 117.0922710278
164.4264248942716 -27.582766298566284 105.6458055318
125.44572113352199 39.96250464792968 128.6045799286
134.87698430428293 57.88701291616001 62.211892476
162.64956365601324 62.23618433294306 90.0585877502
134.18189577327598 62.2639742585566 62.0454847837
79.31504260359225 67.31336492195634 62.1663940118
90.04000234117859 69.29223603185007 62.0320535196
90.34794359226461 71.50767688297763 62.2316172795
199.2273933309015 71.49137968154129 62.2481719923
198.68126878376876 73.37905048284546 62.003982216
174.11245569863902 -15.650864843750327 109.948152866
134.64390272666964 83.82835616196988 127.6518185193
156.19553654444746 -51.69037323997502 118.5174615141
196.17045435624934 78.36308532689857 62.0211067377
155.5935444391169 -6.646062599433876 118.0502248968
199.9140243647395 80.78270878119352 61.9239844287
197.41272716874585 82.41511904773498 62.1951735852
143.11017017259115 54.41266374300186 62.3510055485
118.44128351182518 -49.51115592952262 119.53810777
81.45539644655831 59.08574799988759 62.3821524586
84.55411538087999 58.68450561641914 62.4169799532
128.23056548757506 30.761245255137183 129.1226400292
89.69486280017394 66.1685399459582 62.4329780507
126.75944461336363 27.118308398305622 128.4861080633
80.99546683549694 74.53910167868254 62.3732509441
115.11952770853819 -53.13726691610863 124.7293093211
200.40000699719758 75.97547996159999 62.2912143759
114.99915329067844 -32.47914862718744 121.5432562621
85.80914082203167 79.51019582616274 62.5993643121
167.74454043647145 58.81991538443088 117.8811105986
191.81158104771168 88.34257063003604 62.7554741013
117.95944288313217 22.62404604281336 112.7255305783
157.26206559481875 75.2629038759846 128.7086828582
149.49771103420034 59.42153917933516 63.2908556381
133.66418677395666 59.62898086636559 62.561885933
147.14985119298348 62.64808699304945 62.7382363654
156.02189552972834 -21.350856320054206 110.1155595069
172.34474019087298 -49.49062147809842 119.5700679659
99.67567786852513 -20.842908496887688 110.5868827152
127.05983450114489 35.949533715465414 128.7403512748
169.28342270135943 12.129973376025632 118.341497573
90.8967438310331 76.79556581239174 62.8641550719
132.99060034115405 3.9447822681311777 118.8434582713
155.03272656047267 -22.469029864470286 117.9103684595
194.16042974976057 85.06289319827883 62.6689979078
134.04659145242158 67.61454965390394 67.8955921147
152.99772462563703 -2.5244360172937803 118.4231013797
139.70358228354854 54.29498246591051 63.0983085615
137.97469636245953 -6.989428196059308 149.9485548283
148.4938855589179 57.74933535742321 63.3323590898
127.41771773240927 -2.8890220932007367 118.0983530253
79.15517884247781 61.189147842771604 63.1763995757
92.48625301494162 56.02913180385398 69.2054016954
89.44704746688588 64.26835400827659 63.2279744043
123.71229070326478 45.9476417496392 86.2550506466
150.73082424347666 1.6057522156621218 118.2590249696
118.86236697789002 65.52163944702308 128.9733217841
203.67313972032926 73.29532004293839 63.4055230165
155.987392571407 81.59829159569048 106.7130923765
162.60490669628643 9.841619783468147 99.8544129573
197.83659088597267 76.61518473757593 63.0465934784
131.6177764095675 17.937000686681166 128.8286379342
192.19395822446043 85.02663521188676 63.2557836444
168.478657070778 -11.64141472004681 118.3722311964
132.5050364277747 12.558570774768505 128.3284459258
135.13089684532622 -4.273280677325076 149.732308505
122.58843808617277 93.22259537885773 71.5720477516
168.77276632532514 -8.324248109985419 118.5964488316
135.98004416886403 55.55132367538002 63.6391701441
136.3276367288414 20.564171821403882 131.0218955962
144.97585232682854 9.719200766209184 128.7399623242
138.8545623609244 64.793793801297 63.6223750476
141.6924766024378 66.35418053489406 63.8235292231
80.05652645560706 70.00904253234702 63.6530750492
136.45966777695742 4.009527487054385 128.0831356069
131.48488463140876 16.00840812416658 128.268950375
151.08140405616638 18.422829562658777 127.5146534893
200.51093967644354 77.73096558651088 63.7026972344
106.11214651214756 -0.7329733578997661 118.8022764798
196.0324346133383 80.25267564847334 63.7149883182
196.275545903986 85.1990958722065 64.2836825932
102.96206951781824 -16.497057042325984 118.2532058135
159.50734836913452 -34.255900481330045 128.5216878676
112.67687147088807 7.947987312636634 124.5162669108
138.71042515256818 -0.7777788654877753 149.5933975564
136.9119265249408 63.63373492500744 63.148917375
145.34221361389655 64.49677513758462 64.2931144811
109.40299838220777 -10.74103337639508 116.2820299911
143.88354234571946 66.1729626330024 64.286007996
165.95430788570195 -30.84164131590552 128.501227913
154.32730864316324 -49.827774890981765 128.5548523589
201.60385865213658 69.70031926973925 63.8700081293
161.11823916711074 -31.43889407381478 128.4977734966
91.23116576388912 71.95517020332032 64.1008674808
197.6449503678 73.64518535159073 64.3957862914
198.74874007504943 76.57450288807968 57.4352134227
200.62029100075165 80.44449662397355 64.6575495432
155.01008024081338 33.748846011779726 128.146685924
85.6832657079497 78.23081768919741 57.5874835935
111.312630281557 -15.510807171436944 118.7640143115
162.4287611757457 -44.962770986369996 128.7980414508
112.10280963093678 -48.63618688169112 108.8876171043
144.3409647900457 55.39463347985667 64.0675932142
158.5684282946644 80.38126108969544 115.3373318206
128.3641939184062 21.94115889458135 128.2704762838
146.25374185064805 36.2782964881967 131.8443738478
86.98503931356464 59.19742197318409 64.5231100733
129.14538682384415 16.414255559144415 127.2934469294
148.06406736633883 62.90325804210546 64.6073096937
149.4865359098623 58.472541381189366 65.3640692881
161.66222533707014 -34.11719285504279 109.911105448
90.64736814677775 66.09469392879461 64.4967432977
142.75602261996863 68.07499567579565 65.0666875677
91.16916455400617 69.84437158370386 64.5433776286
191.36891744819883 90.28365789905754 68.439018894
90.41622883232267 75.41525922077317 64.6680479369
129.73455912488038 90.89270331872859 79.7116557598
169.36142264495697 -1.8353463675914128 120.9292821318
136.71878970001765 68.17114685452698 65.9456452237
198.91655864716222 81.88575081537002 64.8344488656
137.64943624691648 -5.86467973513318 143.1233232545
195.41904868360336 87.02228016544255 64.4821981278
157.3745085474469 10.253024718182317 124.7371637509
192.7545940183002 87.8380398818634 64.4236684429
89.37156099359758 57.803436122636924 65.1567627377
162.30500859922088 -52.796980070681634 118.134137242
136.2807914998303 64.03282432523417 65.1113596164
138.87571534255034 84.09318587734293 128.1576401499
164.43876414222132 43.944535696797765 118.577444562
83.1913256997614 59.318440195151084 65.6353439311
198.05588554948838 69.90168929367123 64.7984281303
174.33677101814968 -20.72822703595766 118.6512537573
158.54708866534463 -39.92092762338089 128.4879584999
196.85589038768813 83.22725330394499 65.6308030435
196.28168475163318 75.63435353109787 64.8191978995
84.76822082786205 77.19592619434842 65.4977088456
87.03105271495701 77.62987159568526 64.9192231847
170.0576072301535 -41.74678513542953 118.5550273921
193.1387222327747 83.72012410312641 65.0730087686
136.5878868120625 -5.235673920900055 148.3900340963
135.9603194548306 -1.6036261855631153 148.2043912886
141.49184978584591 -5.4227625282643 147.714610421
171.8852628232471 -35.68206275721403 117.4874690485
80.0557217576956 69.5824470139957 57.4826025893
145.77105185405762 56.229371631369716 65.2981478485
148.34309685742775 40.97606615747619 132.9758962767
101.39909698452496 -45.271711388813095 118.2438552301
101.83537155621319 -38.687720061381924 111.4935885549
91.74042224866749 68.21266229806541 65.5961658382
79.4041830987438 64.91632463596757 64.7978056632
101.6296609884883 -42.48462100255915 109.8996755817
156.1637764489463 -39.54240872436697 118.237367833
80.59345572386115 70.78526446304181 65.3640410687
98.49888245722435 -43.62138817837547 109.853202007
109.95878543206541 -16.45732462093293 119.7517012393
84.7158010844991 60.03880837864559 46.466136924
90.66581252024015 77.55689003537071 59.899225009
169.6386341057509 -44.19310106058207 110.0652844101
202.10287959280396 76.70728801098917 65.515806031
120.3926466922696 78.50777604019976 117.1069919116
111.88704137964947 46.90252753494731 108.4497383711
143.5612268070146 53.63278381005223 66.1163163585
116.48770012618434 75.10090685658425 112.8261263444
154.01773083677776 79.27224257090242 128.453654208
86.02256445438147 57.2989306932711 66.1756022685
80.75081841201596 60.816777469221854 65.8183723837
91.26133654144014 62.02678077927959 66.0128504322
80.04732999939561 62.67808055931734 65.5701953076
79.6543505717571 68.38128094141929 65.7781839738
139.51524144607765 66.86268661384386 64.5589689408
120.16867489117296 22.26713230274641 120.8263776942
140.26942345633236 68.86059945315985 65.5832161166
168.87150858371905 15.166482849951265 110.3702929468
108.418025965692 9.650602871675346 121.325041977
196.41522617177282 73.59229597194536 66.3457942461
170.08872048728148 13.458672425868471 109.0533851223
116.47188858081742 -39.21993890422557 120.2847785788
196.78677453722497 81.09563125229289 65.9708457102
194.06228827410743 87.3363443280395 65.9184670712
139.51789612596474 -6.56982560689714 147.7296535075
147.94694506656253 57.611662014103494 66.2127518462
141.16264470643856 61.673652966488724 138.893518476
133.1820067413626 59.70038046631751 66.6831217123
162.35730472483283 50.01081625898113 128.3015320174
118.20064608565812 62.77168147619575 129.4801710952
156.30998564952353 -49.08704091199052 117.93067561
133.55479973375574 63.18374403902546 66.1647640761
164.86742638392883 -32.67256746991231 129.1907336107
91.9103777899626 64.6101609862049 66.2269464673
145.5950218952003 68.1777160221882 66.3817484338
116.6105357622028 -53.37578544136868 118.0401202315
163.56577558027578 63.066574259008696 127.4068103289
142.33197721434144 69.84067025178393 66.7241557668
142.0671607207338 -3.0460126703010246 147.3903202616
91.57405194239975 73.8056720546875 66.4318092669
126.65527863799792 76.55182713446425 129.5679044802
120.23225793831125 -21.788653006829776 108.5402802188
141.70589054033567 52.82584061274258 66.8770425295
145.47885877926728 54.56106640903755 66.7792505115
136.6796683862557 56.890354430835615 66.83920337
146.01013925400633 56.936529509647904 67.7718976942
161.83649165246769 59.45635913440431 130.2103765963
150.22521506518527 60.534393423116484 66.601086874
107.80091268809372 -16.017542750819636 119.5544590945
146.2302145330029 65.49493258944166 66.9383234693
171.3168345307401 12.697382243929226 113.8192015967
138.14481055051488 69.62434894018045 66.1654108152
135.11792276355513 69.49990328587299 66.7637248854
136.95601466096136 9.368567453184028 131.0255392369
114.71187242857283 -18.194113357337365 118.8785322305
91.68767917259711 71.70461822572126 66.7226962207
83.25839511800459 76.00822710689131 65.9824720379
89.9655841706136 59.02418421078498 66.6166304944
138.71657417039077 53.053991750296795 67.2447472694
156.1477133272903 72.52886658156646 131.5600120064
197.08052202215424 85.5973080020315 66.7735543113
97.32433605009422 68.88470758782007 70.8257766108
201.9578849437243 67.30955962271219 69.7714019139
143.41111679481548 73.40222417334871 69.7021021974
113.65172415119089 69.33882417076555 117.7014388537
164.49442379122647 40.93674087112645 119.1317815942
133.60161978135088 89.48886244905928 112.5965502901
135.43271244274118 -3.770000670445711 146.0846121867
136.74927469277057 65.06925960686199 67.0984804384
203.7297704507443 69.06682319019619 66.8044692909
142.8098377991077 90.02740304452776 109.793470497
87.61720402219593 76.49010060721079 66.8132107238
194.09331571406943 76.0861193401656 70.0886550831
140.13444084700168 70.56014432527016 67.1279241513
112.06737108725889 58.0409289513271 117.8521083228
147.19005104222308 70.41419501182017 66.7643468988
204.86535044363103 71.77317833649923 67.0321866349
145.53246214810557 80.07843297356467 132.0249728342
202.65508854425084 75.11023365704138 67.0225636112
131.41253287950764 80.44119300716181 129.4545887246
140.43280450241164 0.03549294854434493 145.8313664841
150.61477857776782 87.17990785466222 109.6855858684
134.4179378195988 18.746259890064522 130.041712165
113.74591224706552 48.54194167329676 117.9237745083
200.91045781432078 80.29965517134576 66.9364717
91.58877809879797 81.01915770333433 57.2340158552
191.86819994115916 74.2664177226944 74.5885044542
152.7655097012879 72.05688698855508 76.9029847035
137.25590634096216 54.99604364399473 67.6853214255
93.27483824773249 54.10175909352148 70.3759056553
142.05022667064605 -4.663255151883604 145.5563761058
135.68795234038032 -1.752923993770878 146.1139543062
179.09120137505934 -53.522466951516215 110.749207961
136.62891085407682 -5.495581912719345 145.7661228841
80.52268910192883 66.71123675676529 67.1144266235
166.9369555324747 65.67689910556541 117.2408778839
93.61576859872625 66.20597536159032 67.6687105124
156.15853443847686 -9.864482854053975 107.5025895756
144.31530114166497 69.68696002075262 67.0211149725
93.1342037713764 69.92163912837133 67.4531807145
105.41301726038103 -52.961915707282785 118.9861177712
146.37885210125484 12.759962471806176 127.6540607027
82.12019590430243 72.94398977343774 67.8319538269
138.21944372799828 71.65204430946264 67.7174748486
88.76436829183967 75.24460839424945 67.9117144785
129.66917765558878 87.7554634830739 109.9939009249
202.32733420711787 78.48543200762876 67.4962857843
193.0217285534591 83.00684146814211 67.5305027114
92.20784304923652 82.64772834229443 56.306504562
142.61840462479583 2.739393152685622 128.2272860367
142.06158338849073 51.21613540522073 68.9534758261
91.44202007792896 56.85060649870172 67.4877204064
149.54847540120267 58.97794644483521 67.9103528552
82.07469904222168 59.16578165817755 68.068110139
158.34715133436222 -36.90297121421018 128.3480757962
92.18719383169471 60.31562377634486 67.8673899486
89.86645091978781 -49.74692332270227 108.4023822393
200.09675091274855 67.41707557026457 66.1760940695
112.43211336658933 16.685192870236982 116.9804861416
147.25221484480497 67.23804888579751 67.7581725945
128.40280840914008 3.710758831215024 122.9192713434
129.74358893214554 13.48812588573356 127.9723366205
133.11228640581828 61.64789566358259 64.4849584059
161.84211375220676 -29.131244933593166 128.0525439586
158.04504323374192 -17.609273091124592 110.1567616857
171.04782270026266 10.841248272837035 117.2723081971
165.50515947912456 69.65757441937974 120.6502502531
105.46046548954905 7.799082255152506 117.2468265338
194.6647749098389 75.90656784641953 67.9427159135
194.25925331808043 78.25893193838712 68.1183839064
129.56763921385655 18.902040993613205 128.3169876471
140.91681411977908 6.136756380158658 101.4143969312
194.6854580498386 80.09249609120768 66.7857034584
198.00121596629597 83.98646396205687 68.1713351476
99.70282520392162 -26.35162301835451 115.5553803447
174.4635860377985 -14.116855940767067 107.2827845515
138.45804251659553 51.51821546170325 69.0449825829
142.2062753093889 6.023422856874504 118.0202018232
135.4673247529342 55.71003657325617 68.5987192669
112.68585994585268 69.12230357900557 109.5012118672
83.15654205278699 57.220963877414114 68.3417391771
105.68896457596549 53.02643204896384 110.0218383597
148.88369954512729 64.67790788734425 69.5178331266
121.57882475994776 50.82401682252982 132.3572193953
93.88979694480555 68.01491196520146 68.6651382385
148.93046579158374 2.430080784427787 117.7462444
135.07331013185745 65.62706904349069 68.2416748393
78.64290110891945 62.1606084042123 56.5366051986
143.70585109831103 9.156365123575185 130.8818130089
105.95595315615307 -2.910847974115221 117.6112991275
196.6556261657663 68.97553665255093 68.4220516456
149.62158818596942 70.03040595651707 68.4279918531
136.01685937866347 -0.5894496486804854 143.4925277172
164.92397263481178 -28.830911626940903 128.244824191
84.99043811481314 75.22439107901452 68.1742110577
136.99165099965933 0.09928403031604205 145.0195965751
173.7368339510236 -30.70934699524716 116.2471875704
123.4551872197641 80.94062078305927 106.9714444926
109.43470945526857 61.99706224247708 109.867896931
195.08592676649383 86.17233374442037 68.3203792304
170.65597266689844 -53.31216421258551 110.5784362548
163.78515476228517 -16.886154183196723 101.6496802976
159.6958366082465 -29.218665054068154 127.5118118203
88.03958802281154 54.14147885367265 68.8170336292
91.4726393627754 54.35287430387492 68.812624083
85.85263688601849 55.5012276191089 68.2062798001
145.5115736215874 55.23514262741319 68.9990503326
91.84953396793361 58.09487405539751 69.2826291825
133.73564685869127 63.72933648469913 68.8590230266
105.38362094082498 -14.834536580384814 118.2112268868
109.6063284796207 -14.252821931630102 117.6210982458
139.61366051162986 1.5818135765479582 128.456838756
167.8226230949454 -38.09680268197447 128.2018291661
94.08406143484409 62.22769970048071 69.2414526714
81.59838373771446 74.45190947081468 65.2545102337
132.8833014020565 72.22721047215668 69.0659553859
145.01474921324203 70.86995503643655 68.5807394741
90.14102137896823 73.15975579620729 68.5086421216
141.09245813473473 75.32033480979894 70.1832492869
203.48489575578031 74.28618120208935 69.1284630007
156.18148716892978 -20.217533224559006 118.2040666158
113.19214653385467 -46.26725421647308 109.7311865544
135.44168130305866 -3.086109961409477 143.9643173495
157.34687174064496 37.12530521436813 124.0959562292
111.46367356291373 -8.72532291183375 118.0129898674
162.32162501757892 38.55167235167314 112.1165871181
165.12841297458255 -47.76496021099471 128.0400074438
124.9026546506131 92.1769539624237 69.0401455085
122.53606773139006 94.19521298273072 68.9385252782
103.96160606258734 55.314003913761525 109.3265000538
164.6376780236071 -49.85681841749913 128.3064895146
135.2662252172157 8.57866730258337 128.0422815958
144.96643034534392 52.6738631458179 69.3158012322
154.30742225425544 -51.823409631157894 127.9804140895
133.98643752428555 59.78869060583451 68.9462738731
147.28307631082484 56.73658167381645 69.7996286987
161.32150421190187 -53.49052478662549 128.5956035
93.76514505948195 64.22857838060858 68.2053929321
141.18887917447583 84.48203950760882 127.8295326482
171.08843461095853 5.278497584250033 119.6691250919
98.96008619558019 -52.905428789588456 111.3166083825
136.6183798699339 84.12221354833423 127.7834635926
158.8129378354439 23.15457435413927 120.9856492492
81.66810319941622 69.65032275692022 69.0633239241
94.85314706203529 71.54206605706983 69.4752541759
132.04266332699441 82.26907793704629 127.5529028002
141.21884309840323 71.53335996173345 68.8690432504
138.199502064412 73.40334537911437 69.4437237635
194.90807867827584 73.66275400180106 69.1114686223
199.38463781845033 82.59984967014651 69.5431571824
167.66340613741448 -32.213483473425555 127.8734708959
129.23612456212794 80.00398036675803 128.6186731313
159.26117981831405 37.45786652046311 98.0590116769
126.91397830326352 79.01159007434352 127.3018077979
124.50424017581871 94.51990429330581 69.2470725647
141.86585694167633 -5.604409461538609 142.2314456064
172.92245217026385 -1.909590760300972 117.2929032556
140.06331099166977 -6.239256782896092 143.3514092283
85.84851793393446 54.29452663511014 69.9125332036
147.37143713009905 29.788041665722794 131.6066902537
82.21251343927284 56.578505702585566 70.8032242946
172.2062239148225 -3.8352372260513334 117.850411483
145.3662200241045 60.58559443202103 54.7796434739
140.76164924020333 1.0192792964601267 143.2644573982
134.59080582278054 72.38453979915496 66.8424623536
154.0818345736617 -25.290489015522695 117.5179948671
94.94873992466712 65.30674901654943 69.7740302247
143.3290578708399 20.999018866759663 131.0278305213
203.91786921494622 69.04746752784905 69.9849824144
116.04028784544064 49.69854777545807 124.411003697
96.58552525779301 70.5753312047284 69.2772880468
204.8597317782389 71.21897999301508 69.7614873688
147.58638309992125 72.57562842805095 69.3420799716
83.27924306811938 72.66609445850347 70.115685464
86.85497881287807 73.89226007679254 69.6593267755
100.6962969853281 -31.41517502607512 117.8881402927
128.38295355337635 -2.0092358935745764 111.466119596
192.77418130514076 82.45845107383803 69.6481263934
80.48226328879771 67.50613532732746 72.0455726368
190.2047926527631 88.18416154956867 69.1595654744
121.75477777342506 96.14332520326192 69.1690040664
115.89315129100765 60.60688279574559 127.4081211706
89.67495955419405 53.12099597315333 70.6862540511
87.32282675685461 65.86547971552116 54.9056147864
169.85282255787666 -13.172189653337156 117.5306624527
118.63383905374987 -24.270057397840837 117.3145517514
141.32901677014948 -5.132965428092035 150.2469309299
105.26167861946115 -50.34145260658859 98.4202615559
80.49360056855984 60.81317042652636 70.0411726163
132.41418587647297 62.808912791536585 70.1880704231
174.6844553576174 46.702559250153435 109.6991030702
157.89367460866612 -41.74377374774855 117.9572634879
79.96792559104617 65.09954004458324 70.5195261816
81.20708856545532 66.46937762961475 69.7090296939
94.98974519349134 67.70289130089702 70.345308635
132.8720756518428 68.18622358131512 70.0473349373
120.40454203809824 71.12791444738143 127.4568624873
150.3756193744489 71.38675875204622 70.7617839099
145.43706222443802 72.44054840033616 70.1531564424
88.875778042808 73.7772828989983 70.1678177821
135.86405838025033 74.20535176660563 70.2037958235
134.26080498371573 11.390763630967193 127.7385283124
143.72894125885594 75.39609558366695 70.291885914
202.18574142585226 78.9386347413973 69.6734911871
198.0231243776027 84.55953302387528 70.4351502797
143.09529269619028 -3.78150758059914 142.085697698
129.8530662843781 81.73035517361757 127.178881759
150.23081390415177 70.93206948466218 73.0835392946
128.64513133816428 92.6805320887747 70.5338626438
119.6722532306269 96.52163091184404 70.1331706343
102.58868200093296 -39.30099923425638 117.7277431452
134.1809282510174 58.08676939015815 70.468778969
103.47145266281593 7.038192638810301 109.1069246525
147.65676662059192 58.815828898306194 70.4521455735
118.01698750465559 -40.77663873420444 116.5918023296
150.12921180902063 62.7236487598456 70.7212558571
95.5047482734914 63.150404841499395 70.860854383
159.23570396448366 24.842451220342227 111.0244972214
197.21868972065386 65.80362906521826 70.5487339334
113.4986194195854 45.37202706027503 108.3395376432
160.81979392762952 -25.106569828618888 105.6375301701
142.64930930204036 89.13450180125226 117.6812463695
92.68412588290538 72.5855246420121 69.6584356885
115.75864298903605 42.33792676187328 118.3288636111
192.35672390944916 80.10357253829942 70.715952132
135.66645584840143 31.533302149265552 132.4504316627
163.02309260245724 -47.402610067116804 129.5667497364
138.7719533703106 1.7879318767506902 141.7975149677
122.12655199627847 72.2808184726151 127.6212730244
154.3823698528502 87.1396813013229 70.6657104366
154.61069875740273 84.32196270483786 117.4798442378
115.38783345683214 -9.164769075153771 117.9716548802
192.65075819512114 89.371665442603 70.2373259
155.05187633962947 -24.22668889499812 110.1715503022
126.93180799870052 94.13145215148207 70.3402172732
143.51702204066015 51.91256759234195 70.6193442099
165.42506445782533 -10.00031344386791 119.6784491134
123.90820031315076 38.234597262640925 125.3524242345
135.66463629464488 -3.696757342029187 142.1233714676
87.3996939384404 53.53453442417669 71.1341052197
165.58927295191606 -34.74744167114406 129.5047211056
189.55167371091807 73.11435257076215 78.3132251654
116.03758795731797 20.077436027310007 111.1995757396
100.46244049695937 -49.046345803605746 117.4899067696
143.59144773703332 -1.8367754388814745 141.0265252797
136.80183765481377 88.60281255762894 117.253328655
93.14516596019463 57.714670607484216 70.8115362076
133.42103714843407 60.3895301051207 71.1996471427
168.77212783286257 14.896408035890587 114.7867072333
142.4712600695203 7.922518053284051 132.7901360452
142.62032322243357 -2.6844792001778615 145.1009836347
195.0824217644688 68.66515682818874 71.1107883855
139.92455196296217 -0.15663624610435534 129.5237343564
116.18547238118748 73.49259386439138 117.5993993988
147.92957812796607 64.07636180552583 67.7244050805
96.19564015495553 71.8876770903708 71.2856905335
138.0763826250058 -5.326897934608084 139.3856453768
165.22035024456733 -26.795436641204233 127.5695375249
165.25686513727794 69.97313323070321 117.4386184487
138.4920570843948 -7.851826693464062 152.678550687
144.93167853762014 7.056528037713193 128.4575793531
87.56611238284073 74.3724362826836 71.7109552099
114.98002701815521 -16.61893706312764 116.8208976196
135.0558835846543 76.22065835447168 70.8439306229
138.65173440478557 76.74431826695147 71.2810465306
192.55015241782874 78.00268918507062 70.9520756827
144.9518299146527 76.62986590430518 72.3941500335
128.63191221652846 87.74987032295266 70.5115436943
152.65945913531235 84.91043944155044 70.866081002
202.87796004844654 73.62334362540324 75.9324290113
131.33040360484202 87.52250298830454 70.327337553
125.76985685778331 91.23521239203095 71.4837716839
200.29149339905157 71.07173843294221 89.7548584589
158.7078175501805 92.88181998854728 70.9463873952
140.93585042738937 51.82823245918155 71.5367763893
113.29774496366284 -42.0313504916157 110.2985078817
135.63500027564808 55.34671307603429 71.6391612729
141.73128613012182 9.620671671659863 131.9605834478
94.58087591024837 59.152271079076655 71.1491126741
148.81097716617666 59.58533973270511 72.1465456667
196.41161664366768 60.54200193825612 73.7846176983
132.69882029634414 61.20651273528387 68.4077415217
142.60633527794886 -4.37881141332619 139.6474550482
131.88615299002055 66.04913402227535 70.8050160504
131.4597614121544 68.1116714072269 71.6099253468
164.84120282456928 71.93755188338412 117.0536129555
150.26615861221418 68.91479732916622 71.4356573369
142.9912481553127 0.13244512334171077 141.2456682627
199.93056510160017 80.85663049229959 68.6813867092
91.74968497867413 73.89425472114829 71.4550797469
139.0281776441692 -6.485244392657265 141.6082455327
148.04125355394274 73.45976884889507 71.6595674692
161.30025113924034 -26.90707072646576 127.2346754875
129.88457563436992 86.1174226301685 72.8279133941
121.04030186817036 36.31044973103769 117.4337910093
131.385616819506 2.55185073606863 119.0125505709
193.53276473026347 74.86944968610518 71.595071092
202.49720072550775 77.90410870698071 71.4710410283
135.66152073966984 -0.1964724554994035 139.9878170278
191.82676601727454 82.5076578647722 71.5298101386
142.32715482946162 89.28835237692832 114.9825944529
200.56168423356655 80.2966861891413 70.5750821771
202.41762790631404 75.5361137502073 60.0262200567
130.10022353947716 85.35349764638663 70.8727068191
159.4204335155577 27.114245989378944 116.8797800687
198.4593188519117 67.66361517883325 67.5905977286
167.69494485447018 61.54265453553807 117.8632874297
191.7488744399832 88.3996917370946 72.0410220235
117.4576263999773 -28.93423175657876 119.4294645198
156.8906267906833 90.18354052876279 71.4535414871
155.0673660940646 89.37890865336871 70.9831221007
161.75079065006986 -15.782849710368907 119.8905419687
154.9739440094409 31.206967283458177 126.8667580423
154.05610486948677 -29.267992407981332 119.4889709807
160.9368693287607 94.44239071238945 71.572242048
119.30774304594519 23.732026772520584 117.2716382194
160.70662129206843 22.158418766127483 117.8300092894
135.90731293064326 -3.6021022903017865 139.9738579936
136.38566172979125 53.59292309976078 70.8715724655
85.09343508696465 53.82133742415597 72.2144947481
79.44246055007102 61.397407516795504 71.9995540506
144.286190338675 4.1152376782005575 127.5250723138
110.48339573113157 16.065850693352296 117.1526992326
122.02217379009558 96.36897939651155 73.6153265047
125.38107642537297 90.349605312858 73.9156278132
130.06296939151696 0.9373840846042611 119.428036152
112.515839291761 65.98702848147383 117.677137751
160.54248689145464 78.58280597303533 119.7781235867
204.02344590843336 74.37278674976523 71.8162661788
137.39963526515584 1.655619375740585 129.7740630085
132.96461513320685 73.92898487400977 71.723337365
141.21235716604897 76.75302882384877 72.00147025
121.59866220631827 34.45408688305689 116.8235530171
124.42847842529481 76.34319008928918 126.9692253291
159.42505906580982 -45.36123966195986 129.9575697341
152.64889341928642 82.92977815514635 71.1109365985
119.97416182135173 43.41927912476101 126.8766306239
83.08034446165432 55.23141801117407 72.1874850131
132.84388339633006 88.72357067446768 72.8301991894
133.27097261515107 89.2919191537817 75.1350639229
119.4966682993218 95.230714794524 71.9135449072
128.00030877178344 68.25456342309816 75.5447961347
152.23394383068592 68.23063907814759 75.0283883708
121.14041921788832 96.93617971182601 71.7988173855
92.40966456226249 52.45217686105769 72.4736153545
139.19432565437899 53.08445724634796 72.8434236918
118.9391214333613 -30.45813666312175 117.262023024
157.76571424107047 40.29054161550165 129.0549562439
88.65096426484754 78.77426164338375 62.4898568752
134.6912530964311 57.316122213524395 72.1525818297
201.55064481576682 75.18144226497682 78.4202177602
191.53947009789567 61.1580523881175 72.2310718266
131.36822092120988 62.67792137112541 71.9010084374
95.35607311049327 61.07332409821272 71.049194978
192.79049657845866 64.36285935298262 72.5591171006
120.68648386959286 -9.16450500032807 109.6029138215
148.58906110621936 83.05535342257768 127.4190631792
200.2085322244302 65.48052510018962 72.2130670389
138.94054726393716 62.2888392233933 139.2574610049
204.16316080408774 69.66359108251069 72.2358154771
127.10626698591742 95.94273591452396 74.3320173543
174.74831508397193 -19.62128172497286 109.6777511451
131.38647629287857 71.09072899590565 72.4434905771
194.0491728158107 72.44916910163927 71.5421410917
188.1643686294933 57.76925106764503 78.7899758286
149.59255318418997 66.77473592124036 70.432333808
160.90235190331748 37.52933326925484 117.3298154559
132.37766026635694 76.30571102133919 72.1460177027
157.53005368189667 -42.17611551639488 127.8812445921
153.68820577988467 -27.686005986393212 118.0772891088
150.68781614497 82.33905468916704 73.0113170743
198.9563492809089 83.43903506065325 72.3657559777
82.69812591299824 69.46891567674098 50.8424942667
121.21094207267743 -7.398364993221357 117.4279047862
143.86458707834456 31.999750625401695 131.987696027
127.61083583795318 40.78197448624415 132.5169943519
118.91298582111472 -17.594755753258333 111.0189181825
150.5483992381846 -1.534501589956804 110.4474404902
155.8747647335487 92.81463495049648 72.5181144863
122.09926163205989 18.024394747867085 124.5036869818
128.15975419417185 94.69582912320386 71.979605829
158.1174793721906 -53.24546254601281 127.7427409675
126.37275232200815 95.88103512645232 71.8258704045
123.48028833387053 97.05673411883787 72.172510603
99.21965030836103 -15.051916679034221 109.7372645462
113.42851214248246 -10.300633716915854 117.1010546782
88.36866976540145 52.42332051369561 73.4258102111
172.52370041833348 5.276525500489711 117.810139403
145.8653495280781 54.542900486447394 72.2474971624
159.1647392916293 -12.280326689879573 117.7540428393
106.4696705894528 6.6708663773308885 119.1781776361
94.78793245184215 51.96867104030132 74.0511751167
190.54062073066882 59.95874306127584 73.3636716186
194.42244311581703 61.345526273642335 72.6241492368
96.3952932278098 61.74171563040383 72.6389319657
131.36629386438304 87.15265314983861 82.6370467396
136.97829213449026 63.11899653579381 139.0173524939
167.00291335870534 56.2361254013477 117.8499446436
79.16980968052839 64.9263073055414 72.9405726229
192.97890631726278 66.80640541776594 73.5615667818
97.38089321573601 67.58577834136489 72.841811021
141.05788811468915 53.95322419003242 64.5836784007
116.23669884027929 58.26825033110552 127.138140827
124.2467125484575 -7.099803204157858 110.41636536
143.35419440173297 61.65434836198882 139.3396569595
96.65393588450037 71.70135392468296 73.2069694394
158.44171168483405 50.39409868245786 132.2587035885
85.00757082838956 73.37040107732037 72.8766035512
173.01059055983697 -20.265211915666185 121.0333655273
132.15133935202283 33.15505270641014 131.853526441
136.87216371994717 78.24554368890078 72.8710899413
102.53285681398768 -18.7203851372877 119.555323894
190.84317960769022 84.71595808525623 72.6087663451
196.10214223213285 84.78444478152116 73.3881110673
109.79308992967833 14.360858835153813 119.0356681835
153.31069908768174 85.67813670360908 72.8252050562
104.81814389769858 -52.8866177136606 109.4730812838
159.65789091190487 25.007140024280133 117.3125842557
120.22632570344715 93.06009337349273 72.3069258552
142.45422048692743 59.92078387489248 138.9938502738
117.39029914670148 -9.752035405711617 117.1915294899
169.398438219544 2.134382029143424 121.5804824523
94.77105440892481 54.12847623102128 73.1500087975
175.1018530645871 -3.928750054041828 113.6719665462
139.06093104678985 57.9644586919707 139.2618712821
121.25870808913862 31.939178354438425 110.6404132368
129.23585300342546 64.05345520961846 73.704373825
96.94584033117198 64.7215815328553 73.0996168243
118.85028329487733 -32.61511652716809 117.1928816881
154.30282009764122 -32.893499006218406 117.2590411845
80.43580552912968 68.75142133621343 73.80735377
130.13537423023746 69.33610939790368 73.1126379744
94.77710934817009 72.96541990245528 73.0374893983
104.99529686615097 3.4983547705468823 117.9367443959
90.20517697874043 74.10254139547894 73.3809771694
155.35368589340277 -21.335704348548546 112.2321788802
106.67650588935558 -6.027516857493659 117.1646124493
150.01409828887674 73.0865519802106 72.4667854875
149.64073518541875 76.91113692417329 73.1973571176
147.73083772617812 77.26282072316434 73.2955714726
143.26825214574438 77.67701344729369 73.116918339
116.5362758189423 52.732296050719 126.2394165064
142.81216436787182 56.47413029986895 139.3158085297
172.66016131591968 -53.693428883174036 117.9838810507
192.14427139888502 77.87911816895992 73.4752278492
138.74162123070926 79.51380623772707 73.2476451664
152.08025616774535 79.59378007796533 73.4050837225
175.97686491995606 -53.13133517883557 116.9034775384
191.2588604089785 80.72172754717448 72.4519571689
170.88439698384386 -39.83052799166934 117.3999959325
130.7948387713178 82.63969998229132 73.0252903752
162.0670758236114 74.41769109787052 107.8567039224
82.75973563660588 71.68713159035163 76.315314272
117.99246869064999 49.911651396239556 127.2497138487
161.69923040511105 44.44081993382791 126.3847613764
193.37712820989898 87.36731911230511 73.7329140037
169.16911856710354 -53.098205734141665 118.2064144268
136.45705611504277 56.00872968018068 139.1429497194
131.90059336801107 90.82794618300554 73.5858187646
194.35096574126095 65.74290161578273 72.6109191514
174.7295499101636 -23.22142600117151 117.4718691088
