108.669133034342 47.0649122303038 89.6205896892036
66.4345363233347 175.199692537846 114.296687402444
83.3467140164406 176.385695586647 112.61421521448
45.1738116028654 38.4726756763108 81.3808109127167
30.3076462895016 38.0561423334677 82.7346879159471
116.450844125076 43.0790182975306 72.4683293184811
97.8823898693482 44.0536282350992 100.822131241951
52.4422769717065 40.6500102656998 105.413527527113
43.4053913517695 43.0174000729911 81.822534581857
94.7917363551371 123.201401195015 131.313522452578
44.8625729605616 57.073805408523 109.115899297504
48.1826725294279 38.6474507003146 104.799589282448
110.341682634381 138.75170811822 94.7263838412765
38.6279629988868 76.4280023000366 91.8666017897831
103.940831077672 81.7067252464775 84.432319383224
99.7040048922601 138.393357872961 134.062152859476
53.6646915935987 49.0892023852681 92.1536894961942
46.064668591511 79.5174620736279 91.2215352839437
101.049311418227 83.1774643498328 85.391545487462
59.6014030757867 61.3514638475987 94.0995443721664
107.386750964571 57.7572675519962 88.7079629255269
109.257768555667 87.4890053603277 85.3818642471335
54.7964580995175 85.7124399412756 92.4166658383284
54.4811947496086 160.01803849821 121.694066029833
57.1626613262564 89.3463488787049 92.8002691247767
106.360227768373 38.0649369268569 87.7827364176462
58.0367314411897 91.9867761372358 93.5730144120807
59.1994531437261 32.4417563161367 102.611605823535
58.0832222853355 94.8828116287597 94.1801573777765
95.5648387310879 96.8364297554947 89.6248228240826
45.3386730863446 45.9234691940299 91.8072922826334
100.278577899189 99.2148976962693 89.5757075966017
30.9754166004975 40.3542769490668 90.7027815447708
32.6665739868683 36.7230162191178 85.4856127184103
90.823128475584 104.089072526032 93.5123607882882
78.9341754958962 100.879000411492 93.0543876341547
68.1457890786603 106.741176984589 96.1528578366096
80.6886910272285 102.465954712452 92.8641408275451
66.9476013910154 109.751879054861 96.9763132748738
83.8097862821292 175.123733329943 122.554142438418
66.4405064404732 114.984225274687 98.2977404951242
71.5464431125642 166.973371042865 137.667120117138
43.5184067551456 53.3797759733 92.8690973145236
69.4262195111993 166.708797605036 136.957181624942
100.617014759765 135.99907345972 132.779337064733
105.143651520112 36.1644124867727 94.2401181115615
99.893093764731 41.4330854742381 83.7192275071356
63.2772960868893 138.761843719932 142.684855909505
118.93681721697 138.025085069352 97.9493011468242
60.4772724175027 88.1527481242037 94.1657201397983
62.6868040172459 161.552229862618 136.680488053392
102.850592980866 155.819121516216 104.890557480817
34.8999263872509 149.566045487166 113.003972085108
95.7507612658265 132.743724926606 94.8247550511657
99.5039938915278 158.040964830325 105.755157831038
95.9861621986278 160.250836254076 106.404071259478
41.281186657977 81.1109289318128 105.688763809887
69.262868985293 123.600340972902 137.974304581501
52.6243555471347 84.222614454716 117.33734802268
87.0029879407252 173.339594564356 111.82934214219
88.7759008197827 172.411624044739 111.588986535848
63.234305209847 167.598026330047 130.069762699783
40.153441529187 37.2860448772414 81.4485583511523
104.387554196996 42.5199221867878 74.1761957888123
51.1339204876928 32.8209244754743 101.208869111918
77.8688196444634 123.467442224166 136.618237386041
40.8329872683339 133.77026738176 108.438933433311
32.1620500954761 42.4660723494746 83.5338290395643
50.4890495834964 65.7338966253672 110.234591640802
49.1718520845661 150.82461070371 124.444118684264
106.422096123391 76.0081988092895 83.8459343925625
53.0933461974385 147.272786263135 133.841170915763
44.6991687904814 75.3358182910723 90.9613058535581
106.647348548528 78.762328112209 83.5675403099161
47.5557841594258 76.1168118825127 91.1452288259473
113.41895729687 144.022208240045 115.13694031066
83.1358599602557 123.18114229017 135.625162223191
47.2839559341032 65.4068771467846 90.541083996084
107.705127894161 81.3666750883549 84.032267500496
48.6561606094002 79.7130856922153 91.6169363968234
63.741452584596 85.3124400975991 99.4802314404862
113.480743445751 94.101031385844 101.403026985455
50.0046732953013 81.4758450538172 91.5890095926509
99.7978972165347 85.9680899917131 85.9458013583617
108.5523653674 154.63320278784 105.473466079355
107.07646450445 92.7392567620598 87.0427972573553
96.1498950151383 88.4617544010027 88.0292659745528
109.575534898383 89.9573278108384 86.4434134612621
56.5041324540135 87.0723915498016 92.8456790362418
94.9625018616894 91.1586688198661 88.5904064699266
95.4739217960902 93.3375161936262 88.9828148498588
104.139987014261 135.941675662566 124.523001668166
59.4437942486039 35.9561303467868 104.548520032107
93.5064903363141 94.051894810732 89.8567228741922
113.988029830502 91.3382984920387 100.707705065756
61.2306927195433 124.23627811904 100.633517977748
114.076482941668 89.3984921734852 99.9535314162533
43.2876396371091 37.4217531815064 81.6084239359025
50.2395738335398 135.348478265776 120.690080297923
74.7670681899512 98.0727201679835 93.4405574489895
42.5857122704936 89.5566932002353 94.6532612577092
98.0572942665351 99.9179221369286 90.6041426126654
56.092412206839 143.018691632022 137.731900958668
72.4604414966173 101.255590765533 94.3968636013733
86.7712867165569 104.580056641832 93.5094583636823
69.1406505461547 104.888628910918 95.6890401072118
86.7452696145022 106.543078098736 93.9741685299164
90.2151506717745 106.686119422281 93.7878266826149
65.54781422547 107.146336971639 97.0607415883879
89.4697422873272 108.676783695773 94.3430179102046
52.3765639380075 128.064910305158 117.478280805854
116.715031855824 141.442423751542 109.88620790622
90.8084442145173 166.081377593878 133.555211774982
66.5019275283393 117.51600711654 98.7205803682429
93.6173051378491 125.447140200945 98.070227447512
62.1014133720786 116.381004765602 124.476764857157
60.7286514646976 122.191431521402 125.953986625796
98.2201307976309 131.724179975098 99.1854381404492
45.9693321716412 96.8783701552209 98.6667047503634
111.123740374589 136.501234116358 98.7964752386356
97.4211548691885 116.29774962942 119.837316343158
45.3388651746122 135.350745182936 118.341120408365
98.2035819148312 140.061805108041 96.176825994615
123.347713223689 151.221142909151 101.542109816764
31.0548989092414 144.577413680655 111.850743156336
31.6551164104387 148.15120216276 112.02157971371
96.6382942845493 108.058495118671 117.369627355034
106.70919977651 154.542886242476 103.633486840078
81.2852800990391 99.0603406592437 125.146183025286
87.0360149308965 155.629450284312 143.090115685153
55.3249765910993 106.420143641126 113.173210955586
52.6300851353269 45.8633779032887 106.780939714474
57.8845028074289 164.602075739118 113.783164162563
98.9727867635288 111.992001259653 108.008191411306
61.4874315767622 168.78701920132 114.241396545753
65.209085726558 173.797499789188 115.039341187447
111.365266149741 99.0813657007368 102.520287874954
73.7975187912983 177.606934975024 114.890052426488
77.1654871192587 177.834763471361 114.529990316863
83.9963171032245 78.7013065923029 123.579905527199
35.2448615707911 37.2801926658392 82.8002431550776
36.4153155032155 40.0617604110135 82.4437607767116
102.165557943791 158.915203507947 120.786780077032
52.102176522471 156.494736708568 126.227895888544
94.6299027834767 148.972284710359 141.030437215311
62.3773908131516 107.991607231699 122.026002000426
44.0223166137329 80.3099780409455 90.7848480476573
58.2326610064754 101.302617301061 120.254088553522
45.9868067650694 70.4546307314774 89.6939607307723
47.187065394386 72.2334265041424 89.7702092220887
91.9983805000984 155.270480296023 140.787030137744
46.0192038072711 73.8721070109484 90.9024613463198
41.4326555908895 35.6473404203934 90.4539195537933
54.9447638795028 102.546252974361 100.334225720011
102.321665077848 79.8160151689108 85.3559053889232
82.062227054099 157.621500497887 144.836436729248
79.0237060209965 94.696475663024 106.452673020657
43.7513413246919 85.3593774116234 92.6593405775796
111.132597879537 81.4455908531389 84.0724008750094
34.0205492586028 41.8707832687184 86.7207339637614
48.716143448028 101.359698436853 112.082914629348
90.4796025994775 106.76281061648 125.929564665147
59.5729108978903 93.2788214439775 94.0740947127458
93.7699233935175 96.4088412405026 90.6425316958306
46.7280155706878 95.7386764313793 96.6464988398886
53.3125145967942 136.593714495305 131.527184101125
58.6268672810454 97.3377654964935 95.706919903458
76.5006505394459 99.577549516387 92.5869520297178
81.5381762820374 104.04644799344 93.8435299262133
81.4494635024603 77.3019206575085 124.346781113578
49.0727260836333 97.5777156286971 97.3183949642321
53.5264825934139 66.7160572265467 108.797845667616
95.6805771743514 100.460280985261 91.4914390588213
52.1361041208766 132.555720961902 106.532732757444
57.168184036435 99.1569091213111 96.3707870887978
54.1454865864799 99.4336728075684 96.7166705896677
88.61992652751 103.128592057156 93.1288318550113
70.4576383082503 102.268226264685 95.7064951680274
64.0914772288398 148.595775966285 142.830133041111
84.0363936156679 104.02678261301 94.0644938241795
36.5572520259921 33.3087568946933 95.2903517427413
112.435062459569 61.9336486293342 89.9851592292544
91.6755708479582 170.294975538235 124.574149185524
99.8610866391715 105.190674072658 114.467504280984
83.115075621044 100.24863341882 124.977975917959
111.427586248072 47.4015617033972 97.0265547367506
93.6898233746547 89.2961282399711 112.990772865658
87.5820470524709 117.109542044066 97.0172015419998
87.457412963654 113.919957000555 96.1328502523281
74.4818124327483 141.591879796369 146.005787690277
53.7593234630213 130.256114694208 104.799324078477
61.7255701383381 132.571049679324 139.274168963667
97.3214315019717 129.664277274351 100.182820767013
107.606365807604 136.017837865692 99.7570044400566
101.81767142745 135.719745852067 100.674567190886
117.039704612087 137.41925719559 98.7060054446717
44.3717118494704 133.374725969244 107.325528003867
48.2062740305691 134.017690108275 107.007234459821
38.8085210542428 134.340313563754 108.30495955182
123.344463370212 144.408807914118 100.015214609225
41.3282266264171 89.1147526097381 96.0281285399649
99.0863194488401 124.470272797074 111.098984271753
59.2763362234229 120.837609273778 115.473311871828
38.9879281377471 62.9170446871298 97.2189055024223
116.272499203013 153.839601058034 103.280708899886
36.9290613100298 151.198086538955 112.697537695835
46.4593835872399 153.005379261274 112.350509221631
49.5029964082341 54.8787637513026 109.535105856494
95.3277982362895 60.4810682534391 92.0307410705548
98.3541170420129 159.494649231413 107.302474342271
78.2689796804287 81.7896924581577 124.101755212659
97.4432013847432 162.602213722124 108.033526182593
36.1728598241937 40.6045610098235 96.4576213084958
59.618020172425 165.929453143033 114.833133113386
81.6263199103886 176.60267819776 114.25665186804
70.1651589131241 176.894607091229 115.803543825793
105.37153834029 85.0838715447463 110.393927486601
117.570356102877 38.8676742270002 86.4612873597408
38.3210195548188 38.7876448468089 82.6070321015499
109.230053734966 44.5957167230475 78.766684359422
117.681344113327 149.834177415648 109.151522109005
107.662529461095 39.3615832298588 81.9421713155854
103.932891387069 45.3376296778319 75.6318873763433
41.1171864720737 43.4446652140392 83.7816553712135
82.2662925647258 121.257019352927 134.716153524585
49.123932258168 148.852231993355 120.491834845713
34.0232872142677 43.1149810084948 83.8229113706939
108.52437794361 74.2806725026404 83.4268634598007
113.592555149831 68.0754612582507 94.3463463849488
99.4122179455044 83.7228680399708 110.682567425382
106.960007931343 45.753778888774 74.3641142798743
96.1508521724034 76.4299409388163 96.2569888970202
41.7312956291324 71.6713108876979 91.363976001557
111.297349872323 76.5899181413953 83.1727690187979
93.648677190978 65.5185001243911 96.3301041610073
103.276359930561 77.6613525462427 84.9356515646864
43.2199665837956 93.5855771572123 110.218445536607
102.762571355971 97.5160629523555 113.740855634831
51.4087597024812 79.8658647983738 92.4569281744935
105.476000240382 155.453803113066 108.591863248269
37.524271816181 81.0768940820046 94.3149302695261
96.5600749582434 121.403533324374 106.161522769637
103.463367401857 35.3891451067544 97.0052808298388
100.812511705135 144.757678942607 134.757748459958
82.3409645184043 110.68255502882 129.725477677615
42.7748033117484 80.9440777652746 107.756483410937
93.2805507107792 91.7546541007472 89.9365417951947
102.345978255365 97.5951310374245 88.3621721172545
96.9828758175542 145.051986003106 139.285547951152
75.9410168957938 91.7837672043193 115.448031108929
85.209845035744 124.554602833102 135.672689643809
107.444294535073 95.7648158103836 88.9765516245504
44.0875514358544 93.27381272523 96.7417872583946
61.7147605324625 94.5732232024826 95.1249046949605
92.2552362351013 97.7350382359576 91.8129721966443
59.2484325294291 118.468905355545 110.013838538505
111.844362263299 68.6705596408951 104.463487832545
76.718548972276 175.765903883204 122.685615000127
49.982188925834 137.487698075922 121.562069367501
56.1434643258257 126.152367624272 126.924389295915
59.2391546283825 99.3891637430268 96.6172052843382
91.5160254853268 115.405633075194 129.505611922699
109.282997861814 56.9978938029999 89.6881321772957
90.5715929948397 101.69566297858 92.9921334447399
44.2483028859747 34.4019317950464 94.978947195285
107.647202651294 139.141354980417 116.745438784293
85.8619620805188 101.840634290495 93.6804130845731
84.9291968944518 170.427985198812 87.915920713673
51.1181932190851 59.4468044807478 110.42769600155
97.6762472969948 102.617497143346 92.5723742055688
66.4140009189867 104.100632644494 96.9920646246502
92.5329063205666 105.710114290261 93.9183719511219
64.2316647849617 105.764327275754 97.897633871613
108.004534374103 90.7285270252339 111.375411240837
112.366784408987 36.1305502575997 92.4281303333957
114.020165890539 83.6863385815271 98.6711541377708
69.8809468053482 121.542062838072 136.118736938101
64.227109298902 171.359011331055 123.083431955444
54.0428549892105 51.5652037561502 92.1132152540906
90.0090221328681 119.581863282215 97.6717122072877
95.0884737566049 110.965292373901 97.6632968622469
56.0195410852566 126.589132589797 104.536285336817
103.310241774443 38.7967961817647 106.111633954973
91.0993038256908 123.128447730498 97.7012292498381
104.840719872595 136.253331219367 100.312229460983
88.6466876357625 159.109421741163 141.958331683713
31.7275870410312 140.964438641537 110.714390452384
124.103912997555 146.413133303293 100.413424169557
51.7621322785149 42.7682322316183 105.729203792046
121.152552286363 153.725799419085 103.213931712752
111.318942811548 154.418317353189 104.525445044326
63.2049384468092 131.251976335473 139.887126705769
50.3448405049501 156.392883695347 113.13231523722
53.5502444138999 161.212226581696 114.379138559576
93.2447983190512 167.291874096064 110.31354072115
90.9148498395522 169.20861495437 111.456982809509
96.4832946463233 56.4341884951514 103.911821021887
85.9494140146872 90.3275300069994 111.668245906136
72.1814537762803 176.740892617969 116.655640570564
95.7205284527572 130.33244952582 135.135762273968
97.2425877063184 72.4264660967708 97.4904969437517
53.055969085922 53.8309857973727 108.644260099032
103.317634830606 41.9850159231401 76.2500631317029
50.6512217980676 102.331747775348 112.202402511274
57.1449351647603 97.977811421958 120.436212924828
44.1659482769453 95.6391328022462 108.333074946023
115.537668454653 45.1599945146612 73.3131823378715
52.4700427820906 133.366988773917 104.619524825643
117.009452070493 44.1091020503989 87.1679994458958
43.4057781740009 68.4085418091139 90.2055702180954
46.2678257476413 68.3950118318336 90.012160357264
47.9056038819542 69.9566643354289 90.3913364616526
41.8286125314085 68.8834226213708 91.5526238242676
104.095991834843 75.6319844696272 84.744928913851
92.8473009577169 132.67581180044 91.9001900299222
97.0557498996647 151.344971572111 138.18545820312
51.0211531670326 51.2362660776548 108.363078227434
52.7189803065105 145.804847712348 98.3335326915205
99.4220843786478 81.4094298582105 86.4156655774651
47.6069574937634 34.7076964713412 94.0357396778945
49.6259875377484 77.9303854057502 92.1798853939826
97.7692215226269 82.948481156509 87.278398770257
110.926460735303 83.1591177583261 86.2741782415899
63.6649910943656 171.553402992354 116.836026096001
55.9453405775563 83.5002607323078 93.1324450749118
56.7515246059589 96.5523644225075 94.7716263094259
94.8795090066142 86.9726814109745 89.1668899383592
67.2357316931825 123.978305173177 137.291050443664
40.2314662364414 58.7203901074452 101.703510506758
108.431262390702 38.1917919072879 86.8084276383992
60.8742748406284 90.3404840606369 94.2380408784134
91.3494480486974 92.9958258590342 91.2097522696758
49.9205298622754 44.2402781349888 90.3379895861274
91.2119180553048 95.6895121274554 91.7194493944799
95.3718836810869 55.8420614507046 94.9318709325404
75.3815815492629 96.4572091371165 94.5561031834053
97.3975781861023 127.227303522315 131.136573581693
76.5732657922926 174.779327530554 128.013155471089
72.9619189809115 98.5953827078049 95.2822956091291
86.4786241848242 99.4385201648027 93.7828036659364
89.7445770543337 99.92562462735 93.0271601463544
61.5335084372672 98.8577783365965 96.5616959587887
93.7525181147722 101.172217573048 92.8647627712766
48.8824199517904 60.5230343521358 110.91875835657
51.2705924731107 48.0103984006758 107.383578834159
63.1480001692508 100.388385263699 96.9344029614544
136.337081775585 159.569806117441 84.2136049042766
99.367998771357 69.5694162432074 103.906453488229
42.8397389884649 58.8223756529729 108.124336962805
58.1607802754599 100.928085355256 97.6604143536508
94.8161295955505 103.0025749815 93.4113156732381
60.9384390762774 101.343263837687 97.2840157724167
64.767019720826 101.832071137749 96.9426446654093
68.3363002896444 101.825438378632 96.4041142408463
55.2792439011339 101.032137644634 97.8490355352023
111.811579580496 152.458439098471 94.7571576020119
63.9047700463126 103.675438062906 97.3307445258497
64.6772449067982 171.015231560114 126.917192212803
61.6542010812522 106.801604202258 99.0067412779563
102.994087939172 131.087962307926 123.387297805845
63.4394315994831 109.521997790864 99.2072020685699
89.1919161108931 111.656361662826 95.9673796300947
49.1781151890365 57.6159755638862 110.389770367488
90.0268344825968 92.6335734770427 92.7778795381123
78.0917531496378 98.4409099091864 93.1239692616221
129.278075914423 150.466324321431 98.1907196117602
54.6431330085567 128.28312137054 105.340166166738
50.1718819103581 133.78313736286 107.771978912803
115.158201350279 137.015400942099 99.4367366364786
41.1136188549939 146.652732105467 118.966220576329
112.828304522173 136.393419379194 99.8915120457719
85.0408015932732 175.188013604652 117.070465474201
121.568872717896 141.950293063808 100.231233600034
123.685916510271 148.547188182169 102.126521773975
104.517900127322 48.2270774112663 89.8212827038068
55.9345518123904 160.163215697716 127.613408988655
118.969438172738 153.855959400422 104.153748749164
44.757481841052 152.683276935148 113.550806246761
101.269993837198 157.098107799579 107.385204875213
40.5392380572964 152.247423286551 113.789081018172
78.5638185104564 130.720322246979 91.0041090497203
77.9478390369405 158.057186300422 145.079138763266
84.3233095876013 121.619046192557 134.386482364587
114.863482434643 41.070786779179 73.8750697383571
85.0667667609008 175.238753760521 114.790454129
77.9752048421071 121.382297829556 135.568365746256
60.7615829734935 167.041080500267 116.892080785471
115.694466008022 44.2720137966853 75.245480375619
100.084820930401 160.663930078169 107.924842816572
54.2739778121649 96.4569588241254 120.134076946483
70.8272029533443 109.278952945389 129.441661388189
45.0361947264421 66.780567062809 90.2585154756942
49.1863757692738 40.5053990455735 104.863386077473
102.679594401245 126.104136874814 120.069659679628
42.9742292820245 66.6028633769861 91.0344685400089
50.9342970305873 69.493169790225 90.3416221729445
80.9449801752229 113.526386911259 130.914960566158
47.8625053618966 35.6624504460946 104.150022614111
77.8713634189966 114.896026530969 133.581353562304
56.4525325921918 81.3683044230808 115.60953307803
40.8532117928935 86.543057610876 106.909344254578
50.8532474354281 75.5565922497878 92.1668394747544
108.509078937962 134.443007084737 106.408176298563
112.161364447694 81.684239578817 85.8347108284718
91.6747235394463 125.946246083664 134.986042393488
53.3377598430191 81.368240570386 92.8272810622778
111.90689351372 86.7400245167634 87.1337819745202
87.4232133094888 160.765560535988 141.611677458607
110.967297286914 38.1548272392357 86.6086209613554
43.5632669275466 35.8890192114642 100.839113624969
99.466704020411 123.873620511336 121.623231525576
109.761139584298 136.076829289916 112.352004808825
88.4277747524147 172.085229438579 116.711876680924
92.8390243180267 153.1977740903 141.636642953553
41.6786675456386 91.557114513916 98.116260944756
89.5350448829839 95.3403143868112 92.853634969924
63.5330262726709 92.2372381819839 95.3948589563619
82.3396087625119 104.014042067049 127.376878805491
90.0469572838143 97.8073533130416 93.2439653715349
62.2823425676221 97.043032439161 96.0898020681111
105.306794289214 50.6027184294802 91.2412164686042
114.973487022116 40.9129539577176 75.9578279512731
86.2478456830347 84.4052671126422 124.30224185776
91.8539231127326 99.2284125737148 93.0085120777213
84.5501697652031 99.8386393661132 94.3866720138694
78.7468146120366 100.422150362197 125.60125292503
38.4171662207633 67.3981537682868 96.058981195104
59.464398619947 103.109601654729 98.3695066699117
98.0130149662191 122.783563760684 110.832962750529
93.5136451624163 169.081567870706 123.482129306965
93.2413185999533 108.596585394311 95.056946130711
59.7029174806248 118.829398004688 114.593920056254
53.6460951764459 134.59825949323 131.484039787666
64.0061796835919 111.735513238185 99.9483104695603
39.840638973284 66.8975588396306 93.6141260148615
112.504622008797 49.7806020329399 100.622875860295
62.1020263747758 121.950428273349 101.407135696149
58.9684416296037 123.392599669495 124.561082505533
53.3324543821699 130.589331355704 106.765596635227
57.9133058017121 162.594950969986 127.559225372294
118.469131195459 137.879889655955 100.190403651858
33.5805335896102 139.358523285816 111.432395616741
32.8421836118728 142.993412254201 112.172392818171
34.1247836975258 143.794684990863 113.913444178798
104.58936084281 105.197155630163 105.059477603184
81.3111218268387 159.631215921384 72.9515729119208
49.6716095239138 154.038193457851 113.765865649277
39.9376584428486 68.6289794103168 103.985233408088
55.2510033116007 162.747988506233 114.483984973277
99.8717979600022 158.908704822123 130.999191583239
42.2352544350166 36.5939317198297 83.1565793286993
97.7129151392672 107.754270175474 96.9184439613418
37.5649209104056 37.29558560314 83.9011010131178
62.2748135817405 110.02274571097 101.155509988641
104.541826545754 102.156006576965 93.5546860169389
108.239056371184 43.6242470735625 74.5184935086593
47.4362418524041 40.7749598159125 83.6260130062999
66.6200480749916 148.365269640683 144.140031370239
105.074147437495 46.2179372352864 77.483390608709
36.1133307507188 42.2121488761253 83.8903392698438
81.0593969525473 93.1925164693245 105.128156418571
42.9928047109882 44.9886045876035 85.3461228593105
45.6377578629066 64.2580379711991 90.2405537689034
83.0348222357499 102.167239480956 94.513716381777
65.7290848359073 151.570335328931 142.554321176666
67.0019952429552 177.032110060192 108.549562111568
51.686333320082 144.757749695931 132.423635124688
64.6353284192688 94.1272886763923 96.1953844829214
53.3044915417717 66.029508195586 89.8779057106169
77.3270642068066 177.841857574201 112.494430789545
97.0692028417403 123.054795183611 104.764596875668
110.208742193665 73.7107258669008 84.1782878879913
87.1654381499557 116.254519454864 131.801726585183
50.4701805081812 71.5502585411336 91.2274729484228
100.336768505098 77.3327660430518 86.9665587975311
51.5808474557897 77.778171562235 93.0270304916076
79.8823770797493 89.3385418669476 126.049763436275
95.8350547583078 85.1834236874331 88.5333246861036
39.5465864587718 83.8356653303511 95.8483902168696
58.2649980661653 41.0836361687472 100.347547568889
58.9447552114929 112.755196362362 108.342625679545
40.2579701407941 87.4454076686125 97.3056033257871
109.386110920228 93.8793870765792 89.3139907428271
108.791159014113 97.1089386608313 91.3818598655189
112.817101409736 135.784180027382 107.526795782687
44.04680253786 95.1155390922529 98.5328705492053
31.9892815171909 36.8399377679735 83.2203135698338
64.3562194938732 96.4420988652878 96.3591609023587
104.145185632543 100.587026770199 92.0555841305059
48.9118833690856 82.3881817646074 114.247943518977
47.8239106186158 97.9354941775453 99.1820062147611
69.4108940735354 99.0906506496026 96.4934806740907
102.704558598213 154.36056779706 129.211768284917
62.0381725579204 120.61660387447 125.608646334837
57.0330028362211 124.932561558227 105.790577322972
81.2909435513814 169.5331780128 135.884981065046
100.920194837382 103.132273902378 93.1767575044755
98.4832112198305 104.478467225189 94.0909798586064
64.9438348726784 127.386345964142 138.535013117834
113.537822367356 94.2526095097641 95.5529989868426
98.8319099172349 153.392238040949 98.1083819185799
96.1375179488298 105.690868458441 95.1136313497408
59.2946842791806 104.823988793634 99.358560852029
97.9959401091954 123.202923320544 108.835740920084
61.9667338828604 112.803085442932 122.592399052308
39.1863783236044 75.3542465812889 100.680117159221
61.554423006575 120.526681734274 103.269841503849
96.3177322115148 76.7023798551762 98.7242417247369
93.3654154100531 123.374219814889 99.8559226211826
96.6512269181572 127.534209629212 100.587914387287
58.1344475747444 109.950358565552 112.543090656413
46.2809017740529 51.4803963864032 92.1266225636888
99.0776475414236 131.662579469311 101.545484052576
111.455056505503 39.0452718093204 81.5404793498575
96.7652576716102 74.5931787480268 97.8153079893676
111.225667923458 135.541105577351 100.940905225712
43.4713843193095 37.9659420736553 101.289749955703
114.822506620088 87.3261297846696 97.091250439949
46.791788042586 98.6030614242542 101.959902385284
96.2128953138807 70.3806674790498 96.9279375008497
36.1120125483942 136.672009704434 110.888770978432
122.70431433359 144.910770307138 102.267872006165
122.334445319452 151.461429744521 103.820772748671
98.919536199427 103.718409321966 116.013035468512
78.0560425514935 172.676050483528 130.813613668713
42.2043220555295 151.186027501223 116.183341370238
103.134805758754 156.883644689181 108.662341548063
59.3231058186835 86.377520323219 94.1322440960612
50.8140770399369 158.661923076465 115.540707879167
62.6386162650083 169.029136646971 127.944825092749
95.8423582391017 51.3319267940506 100.219228182393
94.4669242298876 165.472389442596 110.756569352738
58.2198828714209 155.904758458858 135.37191148892
98.5082360411864 162.519735981978 111.420164347872
62.2413521472336 168.608080574553 116.350243928064
92.2406324234204 87.2239514942758 110.194023520539
95.1841839288628 63.5882583526257 101.86379354444
39.6205169914504 64.017376270594 102.114229231155
78.4854264547584 177.299935645575 116.453307510849
69.2932690187612 175.950856993925 118.30676666877
110.815821501135 44.2267510684112 75.5382326987797
106.852461054893 45.3134520672833 77.3669744537258
38.5465752158192 42.6526459229892 85.5274867694329
46.9473401766067 43.2479653499312 84.7638901145444
98.1869698921629 120.798091000583 119.075545281411
64.5286714794066 171.801340152439 119.87206094398
50.150616686064 62.6814345054777 89.6035457860168
50.290273146079 92.2301750900527 119.29306930378
53.9753192376314 71.9502272275324 92.7532053163622
51.507256993661 64.5131690683291 89.6311850381464
49.1279102088533 64.3888121151954 90.2096734753273
52.5698882987426 56.4135025665683 109.552174077366
109.162914415611 85.0511136927188 85.381376880547
95.2004465419753 116.460649683732 104.483740771656
39.9050065085951 69.1250611342339 93.1410450636995
53.6337632120079 70.2603574548793 90.627810115387
60.154296702667 55.9168623503929 97.5347733570459
49.3636838815015 89.5690366214506 118.221283462879
112.548506340899 58.559068089296 91.9628481268422
89.0371861055526 87.711451132862 102.358694380953
114.842703287707 64.4936973770431 99.3536351415774
110.087537318558 36.7943612768321 97.1560577450723
111.937592307325 84.621797419164 87.41952159513
101.957072734302 78.67113653379 106.471850731516
72.3220093050131 105.540662449438 128.524945169144
81.0375371254332 174.406442919916 127.023530616071
70.373061960022 106.708040652609 128.205413705303
62.1708184204046 89.2531517242221 95.2692751561487
90.8642927042361 84.6163531006101 102.264127157928
46.6460799780107 65.8557306650693 110.83053505423
91.6204261680376 89.9482411239585 113.667596832846
104.099866726022 98.9832117346552 90.3838589953243
53.6289725966011 58.3376851254991 109.159052524657
42.6924572830729 93.5554356525222 99.1784813197433
60.2321087228528 79.121589959527 112.072889240056
103.239002552285 52.9328556839493 91.3429002006977
41.6264717383949 50.4635667575006 98.3180517922289
106.518710760359 99.6763594536295 92.2759976580203
64.3436063480162 98.4324425716373 96.5885027498088
57.2826670020415 74.9056614029594 104.211273916977
81.0745608240418 99.2587708877717 95.6552743081574
66.7362802613869 98.9861272586078 97.0248098339872
91.6192098114398 120.503450138585 129.711416990333
102.830794782172 103.554178128192 94.1658405989791
106.332171258454 47.5484374886399 88.5302361943682
95.4921961993134 109.355842577825 96.4415021949506
60.6834541558335 147.431748017066 140.790111880282
63.2159631368441 113.228914357009 101.505141021949
62.1821446673381 113.467961538144 103.445071928724
78.9253221985404 120.055242180877 134.55501566489
92.7071932359788 120.831178766071 100.017017411907
64.0162510161104 117.148862050939 101.654640112527
100.425195219097 106.742244012592 111.860644022737
95.5891539771037 164.655496180811 108.46921290141
107.676118148482 84.9177865347191 109.198401726085
64.3660638565174 145.746157156644 143.445197235423
106.218554677762 135.652473780246 101.517771235168
112.848367873618 46.3819848891059 88.3173768482083
114.453679681948 136.535914751653 101.220078095393
116.542285816219 137.544045025708 101.398693700425
49.7031603541279 152.768492748913 124.694077235463
38.2667067162918 134.597339558708 110.451614243781
65.4596299887626 87.4376556402424 99.9646931431834
34.4574039590586 141.621460741067 113.668506055054
62.6552479177759 126.344522226285 135.202856015169
48.9388127542747 73.29679341014 91.0387267316689
36.2348516664881 148.47855423088 114.521396629295
72.4318680219165 89.8485553315356 114.105630817373
111.125210689962 46.4705176119611 99.354673085634
100.296047884848 79.3503270118289 86.3903517544752
93.655542161261 126.13239443177 134.301704630321
42.4285492331818 152.812583051209 113.733464741697
101.508616938874 134.259330349672 102.108522320158
100.084699817985 160.621875145887 110.05875688077
41.0705046390616 137.899448686393 118.369761072152
56.2012893965525 162.702331632504 116.182561449077
93.1721151345438 166.195710127323 112.269801097059
89.7156376841556 171.250635570045 113.479813116963
118.026242904102 42.4703580419368 86.4598947761335
67.1035155400316 174.781765167894 118.025534413321
83.0608651783875 176.139399018003 116.340717384057
40.1110699212473 36.3382816440376 84.1348184566575
35.2161216479288 36.4149376796342 84.8213866496168
24.5720133885228 141.303654553924 96.6383213084119
47.5971493236329 37.9053965273871 82.9954620656634
27.9265744355253 36.9447219352512 86.7156436511446
105.464633428768 69.859456347625 105.962041380121
31.6077486185053 38.3815633558707 84.981946328144
102.247061637692 55.0329888354304 90.3876644753048
96.0717371007601 52.2605502602234 102.156705746628
110.733640559077 71.74416449373 86.7519770352225
52.7630590798479 62.8353494490629 89.8278219025451
55.5032792784729 63.6628427502187 90.4036535252061
56.4665526352822 57.9047288738017 107.407744123776
37.7225412469915 77.193502305275 95.9690157797833
104.382543026122 70.5886472421624 84.9448650920363
107.331881287353 70.4122691127529 84.7995954292178
106.825928826691 72.449285980671 85.0711021625692
79.1951500928239 118.247084027918 133.201584669572
40.729686054146 74.0673552094272 91.9997450199526
103.720668197719 137.888268456658 123.419571225894
101.617841636758 107.858753060674 102.074667443664
103.70003800015 132.930645042721 122.093264275286
58.9680430871086 165.456249869787 123.903482803907
55.3657666042734 81.8392361184982 94.0730662582093
58.4549810649889 159.422803156864 133.110481580325
39.4836648206547 82.7691281186155 97.5175318452325
115.985950170222 142.426637123953 111.646980928504
78.8454968856797 174.35052341254 127.002908669428
40.4170477501962 89.357569159287 98.7493437193866
82.2928586239651 171.60324670675 132.433205260422
88.2376764008365 96.5074971828495 94.2741204773574
65.7520797623753 81.6103581280113 109.413429623812
96.4458480554601 82.2290210774688 108.143750976821
99.1247638820475 36.6708624487039 90.8080573058546
74.1608495800466 96.0993776379074 97.1553233123102
106.410552471757 41.8948913071713 75.107962115599
32.3404582001028 40.5601205540263 85.5404331934444
100.335475234144 104.453944921472 94.9677777324116
39.2893293086171 77.6014258807106 100.656732592962
100.028809381939 71.3967924284363 103.141747752759
65.5349376238186 84.6330480454757 115.126686526389
48.9468675986126 67.2678159121409 90.3395460635616
92.5230807636683 111.913358257363 97.717330289329
63.021090483536 117.597451492458 103.644294822138
114.121938304262 59.905913427526 101.981534257418
54.8507451797434 56.7823204661209 108.665267476468
105.879193462278 82.8973494567117 107.922457284477
59.5350618932434 108.263250736517 101.638291556436
47.227656307555 56.4565579901168 109.717316774742
84.1638423751926 81.1594913081916 122.223809298671
120.782284219843 138.33347508106 101.292332316282
122.270938093027 141.250626348279 102.087093967581
110.587312298276 78.3604556079719 82.6882608295188
109.439974863046 95.7020406440961 110.248733583572
61.1105252516811 81.3703974076984 114.783065929683
115.859090099954 153.276192716819 106.207313564728
49.3075161813275 156.894108272739 115.838775723287
104.175905293246 82.6728508419566 109.430951142082
52.4456357010547 49.7815146107514 107.866966190612
95.8291102820205 164.376245209256 111.819436725608
91.2386068151756 167.997180982249 113.073976482822
86.6134358500823 174.263839824388 115.551737980934
74.1229518026781 177.08499536736 117.958447590878
57.9871207107108 70.2466871196814 96.5951095874204
25.5104803621751 37.6441567952045 87.0023063794341
110.884833956452 45.8070168385353 77.42159548591
102.159545262037 44.5897843197341 79.1233672426254
113.46188251449 46.4274900285974 77.7253035668289
29.5678405786789 40.0850104396262 88.4458643224092
102.753483203632 69.6759066569208 105.609159067627
36.8538613936979 43.2812374489499 86.5370138818181
45.488198996711 44.4323277318214 86.1229331823148
73.8348947520078 156.808866281639 145.047344382459
48.3923944112314 58.4142839164149 90.1364704868478
49.1423588108828 60.4844160340048 90.0789066958942
42.2731643102406 62.7650595637408 91.7095629666887
47.7418343863685 63.0354221330901 90.7422618986345
48.5282276047385 48.2955728090557 107.41255663433
104.404486608575 145.825932781355 128.216971808056
55.0878289700903 66.9249023419802 90.3486768881147
89.3656582794773 99.0699973092901 121.237127285598
47.4032684580005 48.1931730134942 92.359590483123
39.5328349911127 71.1076874304595 93.616438895104
37.6249942029915 76.0598071833714 93.9520356746414
47.2296105563757 87.0613647297603 116.06684719262
98.0823932449097 79.3937500666847 88.8122748905709
113.273705450972 70.881027429741 89.5489885388509
96.5792722986927 83.1173372961228 89.1025372496044
59.5481744051746 84.0083481573575 96.2886798134107
51.4573318271005 61.4091938196538 110.469058859816
57.6227562714054 84.0307729050057 94.9702462997891
88.1821088409813 102.391563410366 124.867297665319
93.4149660745783 87.6175207670101 90.5370046174494
61.5974288602899 86.0615983049435 96.9775661735192
110.870682109761 134.629271425626 106.921738852251
54.9926702556292 126.460670451148 116.523058430128
99.9599068772969 52.5445182952439 91.4455399569768
110.68793067404 95.2800147636455 91.2294283087342
111.533157099205 93.3641908679096 91.1183120030225
64.1748195569663 124.488931963566 135.284047605226
104.703957275661 134.187783267274 113.775998266023
85.4679417286488 173.961908442139 124.952013326961
87.1177023967097 172.928646304835 125.570507866919
89.9567490863079 171.351652770641 124.83301298016
106.609283855875 66.273931799849 85.4833721707635
114.851467682135 61.7187471599122 98.5485963436491
51.411860839978 101.322622019891 101.275202222865
78.03001895907 87.5366826990652 125.201901636734
79.4441770125684 83.9854851056283 128.671115059235
105.686044449216 44.458034932017 70.8617710808579
67.8947503664381 85.2631430511335 112.778414010133
59.0368475324525 113.590258804298 113.083696960112
67.4644687620871 172.071421367464 127.948278461429
54.7009235396592 151.013814999647 134.034278131526
96.656545497171 60.4392393152933 104.493095823323
59.1506643826274 106.603171482828 100.437795443014
111.556105582728 41.8563381670382 97.1728600522117
27.3757424481396 39.5271439464708 88.2081577315069
45.1754460660525 134.28550605372 116.628934464669
59.2002173371321 38.4189811674329 103.854555351918
60.5090801018424 122.292718126481 104.426228805372
97.9486105744443 128.231800624723 101.942212324542
53.8218458975399 128.642715623009 107.756962444097
105.207211272977 63.333894422201 86.5038777961109
51.1518559687115 132.02601974409 109.3958994211
41.9229065167426 133.097737980215 110.698116047109
90.5960954341018 158.202302194927 141.203957446536
82.1783841054978 79.2143639486101 122.818352299579
113.109544923218 76.2076123348945 85.0716705642633
119.998440047879 151.947347584389 105.74164860383
112.223393068331 154.094678452232 106.990304449875
48.4779439493518 100.877001090626 110.104848757698
52.9246508322358 159.327508019335 116.20619743341
113.673651794406 54.9889028096442 96.79112710906
103.397696655074 157.768829302587 119.316185874494
48.4833537191504 52.3841030854412 108.771787699785
113.90775756816 57.1044460058166 101.05326366117
61.7372758439218 149.163608116999 141.387072932962
77.042516986055 177.108233723575 118.162547653054
112.164279397975 40.4273971481248 76.5734190671855
58.7354821523113 52.1779462126097 95.7827621436164
109.842158263879 42.1776192028197 76.4331067257492
114.308907990697 145.6441998249 114.084641085739
42.7721677110119 144.195184276912 120.359447478913
99.9705628517882 37.7555488623258 87.1075143725296
41.3302372788439 43.7197549806504 86.5474953954446
62.4995812420237 141.496764031214 142.415280185245
54.0033122936096 98.063254206834 119.075692278488
58.263473170486 109.840696588416 105.496241130102
53.032789689439 60.6561840618627 90.0974820261048
71.6466274793457 88.8879720999658 105.361574486007
45.4899194980173 61.5945271374165 90.9163351624199
101.529768189448 38.7006097854813 82.4529945783789
104.950948899043 67.4963293473587 85.1895498532556
108.387243540497 67.7341368861606 85.0738119782922
39.1088520981565 73.1957042159117 94.6873657335425
52.9950439260923 76.4220555387395 93.8973473589353
52.7242648461642 34.4842710199617 92.7199735764735
113.596991601948 79.7976663683963 87.4598810470078
103.23293635838 135.378749637532 102.018248100707
38.3112347422 80.1166336982 97.128768386698
89.5859226505228 155.550153899866 142.112999201701
56.9101318371407 81.3393216583673 95.384634099582
85.9255100349971 86.6608539495461 124.324171251737
37.6245977279083 148.918093351707 115.940222046533
94.1490509360927 164.36967551029 132.791752616158
50.5091177910179 44.5168893357596 105.881790784401
89.2216787099383 91.3695673704695 94.241945600242
64.8811523163869 80.9655726277326 103.219232217533
42.3096798045851 79.0448914377199 105.779527397755
86.3104840218463 95.8922744809169 95.0522321322065
109.64624369133 98.5350553875496 93.298916701264
49.5074669309929 46.3970911491044 106.989745350461
83.7099678093606 97.7100263698778 95.4904664805216
96.7513971751378 132.857774751811 135.618308885287
111.525420900968 79.8673075516088 97.5187034584675
98.3861035559606 105.551368048246 95.7979250835691
53.0809757123093 100.933065868435 99.8609280188586
76.1583026855016 169.360302063298 136.227815986026
57.1178551468109 105.863964813788 101.921914011458
47.8542816815973 90.711007468536 117.412797602337
103.652762904516 152.188742576077 127.932552581139
113.592837582923 82.3575351202675 91.8697917772364
61.6086667438873 168.490000727829 126.071266647549
63.150500444053 115.274915868009 102.627744558518
58.4462536163598 79.7474788254844 114.177958603147
91.6094218314378 117.629788261012 99.8035555822479
111.805091788837 148.406967550648 115.473710834181
96.4954678960478 124.801008367863 101.777572005884
110.271051172859 135.160820545834 102.760290354519
51.4663728040535 139.965145883929 131.356562183576
46.6542539218263 132.874886876929 110.641115388195
39.6524805600257 60.8230933060044 96.1362627176304
37.3034617231523 136.62555338013 113.044819525084
35.425550273626 139.838609039547 113.867469947882
122.558367056078 150.272835459422 105.397451278256
118.009325285669 152.452710357451 106.380615291851
40.3375965947434 150.654003041974 115.740514512137
112.080603047158 88.5542762620568 88.1588276439574
45.8062540186795 35.1060217521359 92.6436852027546
39.9704875534628 60.1945388058423 100.010451258386
46.4626300700277 151.290014358398 116.101680079346
49.3656712090505 154.427498920014 116.104464068048
44.2884067334441 95.4575887385794 110.369279119957
45.4676764206208 49.0122844404645 92.446132287291
75.0492172863997 99.451153906988 124.788454035285
54.0668311189812 131.096427768796 128.802134940358
99.09828908267 160.922595681141 130.326331901548
52.2206790205795 74.0697562825146 93.1269617872936
51.0089157486183 49.5170194616172 91.6190599739797
105.081778413777 38.3607637925088 86.1463468656088
80.1370822680314 176.699932059655 117.837436679694
103.493348612232 105.573939015762 106.90207187804
45.6099835392691 36.4318588742844 85.0167161657416
110.296669236218 40.1511469157657 77.9773734912633
99.4251812054435 39.5418816801177 87.8483685642965
102.584890415951 40.5378809921138 78.3906415636697
100.624575520391 45.364465054994 88.1089539006474
39.5524984287057 61.7680814611418 101.224423441592
113.233391160396 96.0253271745722 101.307435038984
84.2783883447533 92.7623204789159 99.1680817137454
93.7066051770403 61.9969348268963 94.6516574787777
51.3234713432945 58.7246925539518 89.9597673598815
97.7414473750275 74.8682200006091 91.7919299161087
97.5602905043289 118.85710711287 120.230972037829
46.6609769679776 59.8964270374163 91.2788321910682
41.1605203371686 55.9162904906489 99.9637543574321
109.404441225697 69.5938788218278 85.8850117451317
107.450918008336 60.5386502601023 87.2144734757852
55.0338299741723 70.2536819526428 92.285798495847
102.475094464033 72.6058261772445 86.4093049931567
121.348527664279 142.439333356921 105.523672447649
119.683436071665 139.900858990671 104.974141192995
54.8218135112789 50.9713440552644 107.225255767897
54.0882563453625 77.8594724577445 94.7806994827662
97.3245895535103 110.363344887829 117.23531551877
94.851346453025 83.6420419462274 90.6796738317485
86.4644834245568 170.115625397986 95.9279510791307
113.132214382742 88.2513943363254 89.8748907569734
111.975963637328 46.2644438404352 83.0824853735136
94.0576656617593 83.1310666573145 93.7530677383429
45.2495649830553 137.777725093805 119.89902416114
90.2584775094229 89.4268562478682 94.7492157193712
104.865772959649 54.5410251590607 90.4190294119406
57.9780670723325 50.4858193710088 95.239899760659
76.3299743657236 95.008766849783 96.8070114195327
42.4019423852151 93.9136327599646 101.22420933434
58.009534429855 48.2425525854329 96.0964987457934
96.0915002882116 56.8893067963311 92.8149799660416
69.2174141831287 96.8349029901762 97.7409399691072
96.8229900573522 78.1092898922968 91.6842729219754
40.9579124313922 88.7745243299405 107.493005198622
92.4897712738751 115.901231643111 100.496903408163
53.9367253393495 77.9007960792941 111.844937979666
61.3981545469524 118.62690129644 105.047760650964
59.1236678550905 121.675183558687 106.15374787209
57.2806379095491 124.037336967259 107.640702495972
100.245895832951 100.272779424862 114.787817092274
104.739528415781 134.83582659769 103.787208244654
113.009943749865 135.546094938922 103.570694962011
94.9120677115407 150.623186793992 139.884365702663
118.628467781686 137.970278528994 102.162102742748
105.121004483926 142.464670072202 125.262921448101
122.812294888769 142.466793188978 103.704851704615
123.194328721467 145.54732371633 104.277323187656
35.7749859458653 143.624951762741 115.394885536234
40.8128535360884 66.3485738143512 91.6031094057245
86.8912923947496 91.261350591565 113.838521098076
58.8431584450736 137.191703957937 138.447244742306
54.790166033865 160.79328132645 116.848961552454
74.4285816079576 91.0357813233179 112.900002861251
46.6218793783146 99.1555599574081 109.306199036044
48.5275660368914 85.0765147521192 116.033080753927
56.4554768969512 47.161325347609 94.7086381264153
41.8610836388651 36.4693823464683 85.9547298374843
105.911954083001 40.3090719946832 78.4063923653252
96.9136413963059 54.6038254216279 92.8666452057717
74.95580156659 116.437784929046 133.721764254077
100.82991934436 43.178673887952 79.6752212170922
102.886209831383 35.2306018778082 106.274577694126
54.6137056144756 130.994309028734 102.428292744003
66.3393234923211 90.187226045225 99.2329707942062
106.350775874805 45.3959999256344 79.7233301103043
111.709236755259 46.8380911194119 79.2730312331073
76.8555472890707 87.5453092678049 122.904022038016
44.2555116431579 59.2896385524646 91.7358838111927
40.4805586901038 44.8884207231043 88.6527120846887
53.697097592128 58.6289064829021 90.2752789966566
49.5120826196124 86.5561517419469 117.29540727288
85.4390176134847 168.918007786211 134.752707744885
87.1408726693616 158.166918988734 143.152290808408
99.5316326969697 40.6901175722251 85.977015617314
40.3489617954257 64.8016505063775 93.5649779283658
73.7631637736127 174.807865113843 127.429190625568
101.049889004739 68.2789607526974 86.9910759401822
100.756726836544 70.7307643402224 87.4129060542936
97.8807415404985 116.113268180472 117.780938394242
38.3149490493983 69.8542033195937 95.2633957778548
113.076547762223 74.6719738508333 86.8914654595696
75.0942550870938 114.452298209492 132.99533116676
60.2762773784069 121.664553355319 123.43597449061
113.737462510152 76.8104104804553 87.0459915951995
98.6897742337949 77.1204505041285 89.2190142228003
41.6371856198058 53.0983341692916 98.6034033322052
50.7505214153768 83.5161957838198 116.257895607202
86.2829108051866 122.024741823003 133.822479527697
37.6493148867956 71.486176644825 96.1861362259286
98.8818919117603 163.475872220872 122.025480001541
75.0102870300675 120.761067553901 134.891026481884
57.3789256369415 123.044529536947 115.72899801262
88.3483763396509 114.19159411469 130.962347837001
87.6045961916825 93.8705996048897 95.4631885972217
99.135318243137 55.1530086583161 90.8934981385176
81.104591591106 96.8366435955624 97.0290327953803
49.9122664781752 155.739882670719 121.501924642407
44.7086965122569 97.1052554254286 102.003430182087
107.464912280635 100.703390822883 93.911483583359
33.4280171970862 35.7145565023002 95.4979178050967
51.1345757291794 131.394569112841 111.796541512367
104.348765942697 103.899508366378 95.7851583285396
109.306240719175 151.721159489254 114.450849881689
42.7359727815866 141.576864027718 120.388230879406
83.3130920221492 159.145630303199 143.924455886186
100.313388615658 161.348114101495 119.978454218289
54.1023578185427 157.370925660358 129.537291708314
96.6139363969455 134.654003806469 136.839568854662
