-0.00559843378993122 -0.148731533895244 0.0331117090662016
-0.0312951065687844 -0.022913581704354 0.0305143722537137
-0.00175096451520616 0.0497953695753508 -0.0288521297154398
-0.0302123568634344 -0.301493751757415 0.0251130720340511
-0.170579345353761 -0.290621617888128 0.0192519526448119
-0.0284298628500703 0.779049726317393 -0.011380357936966
0.0636767091402789 -0.155723748232127 0.016549183664982
-0.181181700383301 0.0514270907607647 -0.0218591501067884
-0.00518470201432673 0.231186911004532 -0.0087850211289312
0.0255819403950514 -0.464893634360536 0.0191729019415178
-0.112745203596445 0.0763848676080501 -0.0265421190778306
-0.187737607991255 0.143787476302724 -0.0117217474820186
-0.0280432144561056 0.751280359781246 -0.0130022561121176
0.102474977764712 -0.40020023394773 -0.0244522865634778
-0.00647058450519252 -0.175353430078826 0.0341123777028959
0.0692819948323199 0.824275660046986 -0.019685930104659
0.0216409187760653 -0.266746131555882 0.0176956135883251
0.0863092111624334 -0.104949575444695 0.0160030783920509
0.0586254139264401 -0.0686871033206513 0.0261987049078357
0.0531028349902213 -0.434776948269609 0.0187485440947224
0.0546507187728683 -0.243771790579336 -0.0252996284734946
-0.0177972862531805 0.90201530567225 -0.0124573894711157
-0.152874978681176 -0.438063801470163 0.0202439210335615
-0.0594127976615891 -0.0279348221452101 -0.0261280514706885
0.0103838872415303 0.640592198092354 -0.00953335394955493
-0.145944974951321 -0.0313823189960333 0.0170981063618329
0.0751769063399286 0.945845059486897 0.00438521532169696
0.00178818693417862 0.461344328796136 0.0267900601795185
-0.161803707234927 -0.138936464911989 -0.0245552530662645
0.0807389333600317 -0.274571033543847 -0.0252503973132946
0.188949484729764 -0.463384088804552 -0.0245855028655622
-0.0124576890786154 0.848846705048966 -0.0121339922307706
0.167791866321322 -0.225994012298696 0.0163424998932627
0.055221881155901 0.80324540156501 0.00620283449675553
0.0149793414339076 0.602889594052737 0.0217586791163486
0.0299793399049364 -0.326821449491464 -0.0244916188050942
0.0258181345145456 -0.305516979524082 0.0296945817731702
-0.138824102022705 0.159508378466411 -0.0157839827920817
-0.133041971927526 -0.410908146612944 0.0198968585243145
0.0884901754409716 -0.352358984594309 -0.0247140508081323
-0.145898608481731 -0.359039288486995 -0.0229903450942856
-0.0278301519397388 0.710033026569263 -0.00273275207229979
-0.105753320546235 -0.237905281889353 0.0183850873044053
0.125197901291998 -0.262384069593419 0.0300901322409607
0.0655212989634146 0.992053245404971 0.00779855450076366
-0.00140597331476396 0.173864908363455 0.0295852004253083
0.195079402908705 -0.0607246967917155 -0.0136976568447843
-0.00992599234745865 0.796947859666581 0.0103991695677169
-0.148644897479634 -0.151935116813172 -0.0245441365989048
0.156885545787117 -0.0904314292255046 0.0153867316528788
-0.0122044823328357 0.604454837058679 0.0242112876768379
0.010236145320731 0.0370997824686123 -0.0288411845616558
-0.131461469705313 -0.00319246722402893 -0.0258015645793444
0.151283973520757 -0.049192516474551 0.0151146502974363
0.0286464525445405 0.962357301028552 -0.0133830886172075
0.00205986146497563 0.517119552145891 0.025876961480424
0.0888313723270866 -0.262480141659259 0.017183942981444
0.164442589046271 -0.420126926470873 0.017843749623683
0.0132411089012175 0.874297812572142 -0.0126059373922868
0.0393129241973796 0.144345591627695 0.0191739418150604
-0.0974539680144192 -0.0165087724148362 -0.0259433172129321
-0.0234655475599454 0.811749299025227 -0.0203063519833066
-0.0116444429550308 -0.487610901378989 -0.022969059402077
0.0364709519115304 -0.416937195228719 0.0187319098890587
-0.0378053287952305 -0.36140002724021 0.018839984801079
0.00364216639460951 0.100568030630361 -0.0118982254667815
0.138704682242063 -0.102218320551799 -0.0269767958987576
0.0703370525622418 -0.0164761977382065 0.0185654688492937
-0.017814453487634 0.730511764537194 0.0103861388776762
0.0465874250694187 0.0433238770260124 0.0151564238003131
-0.198256808372078 -0.386672532205542 0.020177639232457
-0.0019187021211018 0.934975300803039 -0.0129570452915612
-0.232525676698956 -0.24983156282933 0.00905482372674921
-0.0201442656215062 0.794036154947902 -0.0116108834857882
0.193276810542897 -0.431625091578796 0.0177267289654509
0.0427501417595159 -0.12487531307056 -0.0261189255833894
-0.206190923230877 -0.297909345100809 -0.0230250407934117
0.00324978818776522 0.0374459788453834 0.0155103679938001
0.115656035909539 -0.232585264255878 -0.0258207113448624
-0.00246051639759034 -0.127632746009098 0.0328213538109328
0.0555675854734641 -0.388654102084203 -0.0242021912314942
-0.133522559215278 -0.417009641863439 -0.0226351916563086
0.0403449561052299 0.475836050324222 0.0151463694311913
0.0516677338481709 -0.362001023838618 -0.0243801416048983
-0.169517672923878 -0.257785282458104 0.0189936366008671
0.237257602843563 -0.354885549855907 0.0130140034518414
0.0299667129888979 0.774853028958456 -0.019131195159558
-0.0698400310232486 -0.286595408107225 -0.0240840024966
-0.125296346738547 0.0850669011277937 0.0160646120545681
-0.041174535255671 -0.213150848172749 0.0316627790211714
-0.142352127671612 0.0544634538632861 -0.0261638609144113
-0.0748137239761125 -0.0553879893519105 0.0167748086545548
0.0479042381769996 0.862838821093276 -0.0252300050052911
0.100165966760454 -0.0477932448179605 -0.0271156533562757
0.02598103468843 -0.0975279967234402 -0.0262075920315011
0.184346071493669 -0.313181182909579 0.0314212530240943
0.0289440907847145 0.863875746102743 -0.0193306746714677
-0.0203685194616437 -0.0465788145342285 0.031652896398341
0.00318952689639894 0.605117131342979 -0.00687376387742564
-0.221574123027687 -0.378660277851507 0.0202822452437402
0.181227694599337 0.0236352705487671 0.00577348231616154
-0.0793226415862085 -0.0952363160003082 -0.0254735801042437
0.0510328967299089 0.704422459640861 0.00522295545567636
-0.0178856937744743 0.563500235030474 0.022955944987869
0.0332311407715805 0.12374505158575 -0.0118877163078065
0.210068579258042 -0.296099336729747 0.0165708717023788
-0.240431876029446 -0.310295954540132 -0.0015650417709544
-0.00940192484947783 0.400859685848405 0.0259681314997038
-0.111150489894597 -0.121311105760131 0.0203634029448102
0.145451618551394 0.036595113005364 -0.0128157601135864
0.0400474337817149 0.386475099828339 0.0194121668876124
-0.119472085060145 -0.454290986922476 -0.0224519688276218
-0.165742327068285 -0.1040081450431 -0.012263042777432
0.0338392017209161 0.440333072689122 0.020745857258887
0.207015895718532 -0.283878639794064 -0.00713383548024181
-0.0243506487136878 0.46788188946407 0.0170424419839324
0.0395796988100885 0.902634146360173 -0.0130057736907821
-0.0258903603913205 -0.0583281933435022 0.0164477868241078
-0.195771281920324 -0.384969262776778 -0.0224351177366793
-0.237534021009623 -0.293308063802648 -0.0228411058941749
0.0751857391679732 -0.126794928036189 0.0193708567312163
0.0338562508318453 0.835244847485257 -0.0122730633881371
0.126281269583931 -0.116424310408335 0.018927411482285
-0.192991693327785 -0.335207018976737 -0.0228410478310287
-0.0274247252283586 -0.310202594825866 0.0183774913674552
-0.18128612647279 -0.413845745447615 -0.0223227779769538
-0.0946099457651285 0.0467886710009995 0.0161376302629104
0.0620997382675992 -0.505727260905574 -0.0184975373673104
0.106541855825922 -0.248557346187126 -0.0256319252624516
-0.166463819491022 0.0280530698387304 -0.0257917086857518
0.0153015198149103 -0.132658720983036 -0.0258632548965228
-0.145625092511158 -0.2308892962287 -0.0239685440580496
-0.156407418405942 -0.389603440547868 -0.0226793422379072
0.0418323997515433 -0.219066727724405 0.0203112311620292
-0.15230518108741 0.109240716833555 0.0160734630205669
0.0531418055133688 -0.435097238942234 -0.0238317690110235
0.200000728698491 -0.442737272366521 -0.024821836777448
0.160066244782522 -0.317765322423469 0.031617968030831
0.120006107406932 -0.411347124760912 0.0180933141452518
-0.0467022323083872 0.76881827552966 -0.0151518576449035
-0.102957194206985 -0.303456230955341 0.0188642637262198
0.00492050185303123 0.81564940556797 -0.0120969636967592
0.0302794706492656 0.745310195222083 -0.0229310053483625
0.0317191881178378 -0.169296281823656 -0.0257025653048187
0.157808621815309 -0.481159402210542 -0.0242302363993361
-0.00361118577706978 -0.198274163873808 0.0333725924548823
0.0529592151650167 0.788557222876982 -0.0122329245991498
-0.0166549932342484 0.952567329421851 -0.0071685599712488
0.016610776327538 0.834583930535674 -0.0123289463644581
0.0341851289627182 -0.0236798647326676 0.015754887214273
0.185645213616284 -0.111001310556385 -0.00983213052187979
0.057987253899276 -0.26461954934054 0.0174169970191036
0.0253737230149607 0.157086338064716 0.019527686954374
0.0283090761537335 0.701371676757517 0.0111994178056358
-0.0862286863286722 -0.408278230343854 -0.0230415218929497
-0.234305771974956 -0.332692028166471 -0.0225620733525179
0.113851320074985 -0.165909431988013 -0.026312216323539
-0.0551508452950323 -0.217928463725943 0.0203587738340916
0.00964171191730729 -0.261370386762825 0.0208634853787636
-0.138339059552521 0.0756382199279735 -0.0263533770807547
0.168252447670241 -0.156708647131266 -0.0197560803895812
0.0311009479577129 0.449494904727046 0.00139220620702665
0.148947172627536 -0.135409876541023 -0.026797311309649
-0.00390743283474507 0.913750033149698 0.0104166913201292
0.227111893075159 -0.444999280670305 0.00373284468768022
0.109529365886582 -0.346845028747578 -0.0249058229740257
0.205186525583513 -0.392609414175941 0.0204591428154492
-0.0309899730702278 0.258858058893854 0.0174333464895675
0.0117481093674866 -0.0592250056031372 0.0161859032483934
-0.167531092363271 -0.445061154447138 -0.0164497397820767
-0.0131813355477502 0.844124535169592 -0.0246883638927871
0.0362112849913661 0.864585333953816 0.0089813276145668
-0.0765033374823731 -0.175854341774441 -0.0248770185807617
-0.179609628956112 -0.138163913289571 0.000861550049976082
-0.0132531194526864 0.647969195765899 0.00652562434490961
0.00726451767797947 0.720525574876217 -0.0113926907816356
0.136849019022475 -0.159727619269392 0.0191821274966824
0.0719547069798722 0.858219513371975 -0.0240152842398554
0.121482990240324 -0.376819073231031 0.0178209639179654
-0.119943051124952 -0.196705322097773 0.0181721453508032
-0.00630853245719055 0.113743971949408 -0.0118702669651715
-0.0975929858065616 -0.476959872268381 -0.0224397612029924
0.0133296392439662 0.150705634960613 0.0300785643593365
0.0757802401313634 0.0157320330143338 0.0151588309350918
0.0546173855592258 -0.251561558903936 0.0173449059082517
-0.0809887903708212 0.0582941054865263 -0.0266297900300344
0.130985506668151 -0.0347087760380396 0.0182713904516789
0.0878169094149444 0.00510298078505822 0.0151532394211779
0.0854214714323769 0.00810832645718027 -0.0274355666111909
0.0423823841712866 0.684738409279919 0.00162832406135802
0.119723163846719 -0.455828501196416 -0.0241465337397103
0.0321583376446346 0.799152997381576 -0.0247436938013158
-0.0123712167770667 0.434815555643998 0.0216708182840458
0.0450541149519309 0.791947542167705 0.00946822259928239
-0.107705816790549 -0.462454440415989 0.0201077780474145
0.0977542561795478 0.966083896815171 -0.0138148114315564
-0.0304290908532435 0.131991028621014 0.0216706060861638
0.0349680382217297 -0.283661142829341 -0.0248532290034511
-0.0290355861397576 -0.324570672374833 -0.0240865628699938
0.0319660302469328 0.103148533638571 -0.0121059024026078
-0.00472008881646132 -0.0742978740178838 0.0327503596936241
-0.0442729376758337 -0.0602207877331186 0.0165933220988506
-0.144446588754455 -0.459751340811816 -0.00567025432563885
0.0413602990088157 -0.345910143247511 0.0181558267170431
0.103460113909104 -0.137736758379505 -0.0264550379980772
0.0328047811699489 0.6358600610712 0.0204132428297725
0.163068182690845 -0.054856543598841 -0.0275098200449729
-0.0195073834492204 0.783732170442263 -0.0226972440765664
-0.185894357790913 -0.181308697461077 -0.0240569503516759
-0.1127033877631 -0.31722034570713 0.0190370215519335
-0.186537360979343 -0.233492389782701 -0.0236553640199685
-0.0743840753133396 0.096017119733016 -0.00612436174851307
0.183851439055422 -0.252062364634424 -0.0161588332347563
-0.0833284195748303 -0.0360900988222634 0.0166882711624337
-0.0647623793583133 -0.194683902068821 -0.0248216069447223
-0.0336427046623292 0.0180788128230269 0.0303994843399174
0.0302111302728833 -0.502372313454259 -0.0231563888092701
0.0339868377222362 0.586228284287389 0.00403511337036228
-0.155586863380431 -0.175505882007096 0.0182649501888914
0.0241763337566697 0.00533258719735298 0.020382169657741
0.191188500772107 0.00946325993765048 -0.00266293076209093
-0.11004773144066 0.0260363455780724 0.0164060999581856
-0.132389126659144 -0.159486115377305 0.0179791300761305
0.211474560033705 -0.329578809504336 0.0168213129012016
-0.0149433868725982 0.324707996422819 -0.00175002678192599
-0.112809658008625 0.0381630767319831 -0.0262500559768485
-0.106990546722602 -0.421645058992908 -0.0227906816055316
0.179740513694841 -0.063083527231307 0.0181433258291544
-0.0214707333339437 -0.114979990924414 0.016847431054268
0.139526750592165 -0.290060266084066 0.0201529750245218
-0.13999504331333 0.0724234756424991 0.0162656792082218
0.0776510537656533 -0.416901157965475 0.0184377371511632
0.0407739293535744 0.533567146861951 0.0137511782243539
0.18041937406376 -0.349670794785563 -0.0253907105261474
-0.0916505043307662 -0.0840944780646999 -0.0254700349689013
0.183589895930954 -0.279630129106715 -0.0259468214445132
-0.0383420934117954 -0.0816907266162131 -0.025868930027855
0.0172243327093851 0.0849191168703889 -0.0292547463975654
-0.205455579289178 -0.233539397605909 0.0190642610514897
-0.0241727034495591 0.0509685381115991 -0.0269796424003215
-0.00425725206399172 -0.0405805456147725 0.0323208326312575
-0.158409989729508 -0.129094401492181 0.0179305790914548
-0.13881150247774 -0.0689851351979483 -0.0252504628483974
-0.142272622764468 -0.234112151088446 0.0186178215317791
-0.14340654894265 -0.0327847804557622 -0.0254918847305878
0.0368681942216625 0.0245034021288167 -0.0118802867374364
-0.0362368483558355 -0.418590404140328 -0.0233179340651752
0.0307107694107502 0.29337441964239 0.0214457900920386
-0.0463990169993407 -0.0794756960912914 0.0198781071326882
0.0390600001680173 0.0655097946605268 0.0114539583962473
0.149207460997012 -0.432360340277704 -0.0245389629010421
-0.181800057308777 0.0564944717512933 0.0152688939382397
0.0503095827423046 0.9001144547374 -0.00305887839992378
-0.0163495391789512 0.397135976778321 0.00119616395773678
0.0459200545265827 0.0450253748869362 -0.0274350011962497
0.14871651257526 -0.49719613634642 0.000473753740359137
-0.0348750063263268 -0.287716350745642 0.0265537359042709
-0.0912686514207865 -0.154502583456865 -0.0249389140401804
-0.0103545031282767 0.921773884219611 -0.0243574461076794
-0.118929152259133 0.128723488826973 0.0156882213995952
0.0914784081416016 -0.375563779841424 -0.0245594574176822
-0.0167234945773536 0.338175748337174 0.0218354926565531
0.0516433827804505 0.766122339276843 -0.0228257091237191
-0.070369252941129 0.0832876863224682 0.0156872796598273
0.0735254404981893 0.953536694264089 -0.0136395892272534
0.0444813911212135 -0.288160338966472 0.0176957772332346
-0.0195928477862264 0.24902500523827 -6.08949568507368e-05
0.0137712478162439 0.548025168653088 0.0219535749277889
0.115683621982811 -0.00274527501530077 -0.0275689987640112
0.03693756836867 -0.492497252284271 0.0193061492499717
-0.148187798455042 -0.291025952552693 0.0190926103669675
0.174088564980583 -0.474625192349541 0.0181883196348791
-0.0125735395303419 0.181859370868996 0.0199395558606267
0.00588271389275091 0.262854490747442 0.023889678068708
-0.209345157762885 -0.270313383611068 0.0193693996908527
-0.0181267840203256 0.758072882329318 0.0101769220356569
-0.200935408625113 -0.25835035306683 -0.0233650635634971
0.0533191793917256 0.998547251532523 -0.00649599101049762
0.110996248210182 -0.363041917368874 -0.0247927025159745
-0.114881978730589 -0.116049931034747 -0.0250620402514409
0.0125415942537525 -0.0942639321089114 0.0164472001259451
0.00557644599868004 0.00413283628829546 -0.010604729923153
-0.0289729582575324 -0.145520564304932 0.020748839083321
-0.0871731925669596 -0.00748433752143293 0.0164978215919308
-0.160582806818669 -0.395790878660377 0.019976978116839
-0.0138015321339485 -0.500060592192604 -0.00943697567784697
0.0230774567710516 -0.418437164748308 -0.0237444560496875
-0.100050516172049 -0.477079918680141 0.0201621746023409
-0.214800493474873 -0.220247937872631 -0.0235551884642029
0.0293170201254586 -0.107830990582106 0.0164301060385429
0.149363032956249 -0.45618240548534 -0.0243577017395722
0.0845324434972853 0.829228316315679 -0.0177696596640802
0.0312656505320326 0.989809345249986 0.008063363186454
0.0382828038596811 0.564243247040974 0.0198542289025174
0.131972112513425 -0.236075160526604 0.018476204781158
-0.070265005827935 -0.463111575347758 -0.022735578183666
-0.20179939352584 -0.402474492841737 0.0203223267595054
-0.027919653373512 0.084567670944957 -0.0116206179158772
-0.0665401068339561 -0.130673861205994 -0.0252943285980938
-0.00150282231918908 -0.228895590209125 0.0175724931868332
0.0264206875673514 0.395582300883046 0.0208566296107245
-0.00729395555804127 -0.282571150099856 0.0211473641937922
-0.00329426722399405 0.975151704527519 -0.00330774327456122
-0.00855925347625729 0.0252930747695726 0.0156877606134952
-0.126017899152293 -0.363088862902885 -0.0231009959350081
-0.0109351550110266 -0.223140469530265 -0.0249861893834985
-0.0556089498331521 -0.416003095353729 -0.0232015141556478
0.056997541692193 -0.183764435285401 0.0168112900952422
0.0144206700148835 0.434088509338963 0.0195826444891578
-0.12932931485502 -0.373469742165992 0.0195837228852972
0.0593773123676932 -0.102208324780684 0.0161736131595518
0.0568309413436792 0.768900577284895 -0.00859344160502442
0.0742864676580808 -0.505236860892712 0.0189492033532191
0.143209862025951 -0.116864229885746 0.0156859571874729
-0.0753934072545738 -0.463852312719377 0.0198887072760755
0.0234434409255176 0.665534141850127 -0.00653849699818162
-0.0207086071795483 0.371394238837628 0.0212465721024323
0.000787379925360081 0.0843483365881123 0.0151716369466266
0.0525652211600925 0.00710550061527461 -0.0271939818728141
0.0435859673760296 -0.345407684985257 -0.0244446291022774
-0.0430173034264887 0.0543089372948319 0.015712625701715
-0.0371317606342732 0.0560238777656518 -0.000781885731563195
0.0507858732618249 0.840040229143234 -0.0227560591017996
0.223878212218993 -0.314273736172692 0.00203344805263638
0.15935518481098 0.000943376443578629 -0.0279090054701809
0.0455560207130309 -0.403952472583729 0.0185679839769018
-0.111250914708215 0.128716643343534 -0.00914019178975344
-0.0972214519538928 -0.165784872716457 0.0177735751974648
-0.00765087552288298 -0.17284241649506 -0.0253942556911695
-0.119868556139677 -0.444594421174332 0.0200597654157022
-0.000692207369519864 0.33942388037865 0.0227049625335403
-0.158727424401609 -0.0694661968928479 -0.0228732523890446
0.0170364054127196 -0.0156460553944259 -0.0267672752561672
-0.0557919974547673 -0.207692698003262 -0.0247855259165796
0.0424307404845001 0.880899972874367 0.00881316322785947
-0.0921397904918494 -0.276004280197238 0.0185767964438423
-0.214543687656464 -0.363363493692191 -0.0224686608621467
-0.161865466004151 -0.0888615716394609 -0.0208884017072142
-0.0312872630886085 -0.422835294689381 0.0192616444896792
-0.0269316982734813 -0.0541658461615408 -0.0261597783449194
-0.0806337957946351 -0.372854561282551 0.0192329738006408
0.219517645875659 -0.457482213712636 0.012262785609725
0.086146153365887 -0.32052173269061 -0.0249424026022852
0.0337141154101139 0.379730204932891 0.00396937568092628
0.123627298216882 -0.106439013667247 -0.026835797379587
0.199900058815963 -0.370944169326388 0.0231773287407521
-0.158116872112089 -0.323712453226466 -0.0231737690144791
-0.0466518582311768 0.741773405457691 -0.0225143293930776
0.0161145968268463 0.971381264132209 0.0083072933797683
-0.0968658255242358 -0.479617603326166 -0.00704320484943421
-0.239673615880155 -0.325747921694064 0.0113317466905119
-0.173062955956232 -0.180600872843086 0.0184278755190644
-0.15787832750404 -0.199120061173122 0.0184632642959747
-0.0136979884265703 0.877940310554386 0.0116832570903081
0.177519996349913 -0.487579789176136 -0.00286128532146098
0.161772043299517 -0.364820533430718 0.017440245841326
0.111238882397104 -0.428797387836977 -0.0242941915634256
-0.00614727991964636 -0.253559813057869 0.0177929550317296
-0.00939729040244791 -0.101124853545852 -0.0259275067530182
0.0989055246641004 -0.00985609564237971 0.0183110990276608
0.0117219859507431 0.335692708320968 -0.00945947572182354
0.0477690060180393 0.723561027223152 -0.0212166643849918
0.00611129782019028 0.18011002627939 -0.0112108958583223
0.0548134154579852 -0.469954274130148 0.0190052243720511
0.0505096711519474 0.923848597781198 0.00679211823010638
0.0305092696488816 0.772120056023011 0.0108869999927964
-0.0483188838935966 0.0401585247127644 -0.0267251945255074
0.0397283427582395 -0.155836908212447 0.0302909572932463
0.0257799101457935 -0.0471965248205503 0.0159945319317185
-0.127773175355598 -0.317161479642108 -0.023439829622599
-0.197450684782964 -0.417376966319315 0.0191505309071015
0.00481131767046523 -0.194996434866431 -0.0253171076996633
-0.0167892603204215 0.0165523546898916 -0.0114745855319258
-0.0243742947352997 -0.222074525979794 0.0176811481841149
0.0429044376772805 -0.0210201749823318 -0.0269106761784928
0.0350825592157566 -0.269053823024043 0.0176193811947422
-0.232055608494913 -0.364771487706417 -0.0218101159481196
0.141664718434527 -0.043073767794491 -0.0274463679137898
-0.149812737396375 -0.288652660808948 -0.0234959526016983
-0.0833620833662431 -0.292671971224745 0.0186405022414554
0.033757874937887 -0.223571984429347 -0.0253046762394051
-0.0726100139075504 -0.0131860267193046 -0.0261463501625423
0.186187048807317 -0.290844000602931 0.0167031801498967
0.0319230536489183 0.738773545889534 0.00996566090258967
-0.159197309492951 -0.365254229562725 0.0197328469077102
0.0778903026986972 -0.334736236577279 0.0178134758119974
-0.0466229729573755 0.855753852836632 -0.0216855411587231
0.0850051993653047 -0.045358575849065 -0.0270258479996985
0.0429180579680527 -0.0956033829667021 0.0162400754934984
0.0136052925054772 -0.146753977283363 0.0199617670428372
0.239584221166806 -0.385824179031085 -0.016999923264581
0.21288959558645 -0.293647205826534 -0.0163398672274654
-0.0795919023852319 -0.0733537577380028 -0.025637734053075
-0.00232688820788312 0.871719507278633 -0.0151778673727695
0.185863558446289 0.0178404763158283 -0.0247169131911195
0.0958952162038577 -0.45980020191762 -0.023950000001466
0.0949666481792956 -0.245169329155354 0.0170065601413465
0.0991800288382666 -0.146648518771312 0.0193494525192236
-0.0160556074324988 0.202745323783766 0.0225996314172213
0.0238918984966624 0.945955190191936 0.0084496546119233
-0.0507042467278471 -0.231649447787227 0.0205899481672161
-0.113760885600169 -0.412828798850062 0.0197721147027067
0.0265276037231286 -0.260457004924989 -0.0249716924603199
-0.0590544939695431 -0.268433395657383 0.0182808465912338
-0.0458319078928386 -0.299292648928369 0.0239412908318635
0.144254119766001 -0.27910296491984 0.032441232097464
0.0273829296836872 -0.080581881246215 0.0314279504024417
-0.182062423693095 -0.300071441402065 -0.0231781735441138
0.105149401202152 -0.301383572450299 -0.0252200103285866
-0.180794668035375 0.125701657888299 0.0161509616265255
-0.18391497299018 0.14740320419736 0.0160093219968259
0.135255741923575 -0.0255017813354543 -0.0275355304927581
0.0240741296706491 0.113209325027251 0.019186089165324
-0.157705144139687 -0.0405108967163946 -0.0128542237556107
-0.00300506904355323 -0.072849577746177 -0.0261878633376812
0.0140987465470661 0.272498084946583 -0.00868978794265467
0.154927224634801 -0.0107343233989504 0.0179185300523188
-0.2377197170771 -0.276033046920714 -0.0229607248701313
0.0188922790801434 -0.161260676670431 0.0200340847622793
-0.00711026556889018 0.103054447653836 -0.0292189272697017
0.0153180824847973 -0.22600091842366 0.0174295232960752
-0.073683208738315 -0.40047153477728 0.0193923963960874
-0.0535890472729161 0.0233207389232505 0.0160239997838796
-0.090739820489402 -0.309907049600769 -0.0237583153047199
-0.204076115813523 -0.193871199521226 -0.0238333587686557
-0.0375537656460011 -0.473874289249385 0.0196944539189799
0.0107051264635266 0.230884614006124 0.0288248192158397
0.0146230569482205 0.126115862859386 0.0231167863786709
-0.0324255015586813 -0.192497712400191 -0.0250666985693124
-0.105011756008689 -0.0639610070691036 0.0170564387225382
0.0190234874739918 0.750734489214223 -0.0117052605425695
0.113856723770246 -0.335855464528301 0.0175609681929214
0.0250839781373246 -0.0411693493819473 -0.0266298566302526
-0.227002236544868 -0.234022574356833 -0.0233567425473551
-0.0106884063096636 0.700983704915719 0.0227014308193224
-0.0260632444776808 -0.0433283414140545 0.0163347295336391
0.000755268519992893 0.967039276072964 0.00901955362410682
-0.216096755126655 -0.309163031485012 -0.0228716223506189
0.0590288870412511 0.0306565941771662 -0.0148497319553111
0.0805060339571591 -0.0882458397222223 0.0159160836911829
0.110961564122911 -0.465495627594775 0.0185705422191836
0.109591244364387 -0.132228291605381 0.016044341060949
0.184730194491621 -0.0772755871003647 0.0150887274563193
-0.0216270377026783 0.889304862820503 -0.0123072883467544
0.0371190918285604 0.012885720057041 0.0154559310828839
0.0373743288390065 -0.195756172348328 0.0170423843014934
0.138381017708081 -0.204521143606961 0.0208049865315123
-0.1375974905833 -0.438927143458847 -0.0224388293350575
0.021689884038173 0.615983327305305 0.024428335923309
0.0358669261231343 0.310436386727254 0.0261339376102321
0.19447183423589 -0.0122210513539365 0.0145283571237879
0.0833516875134742 -0.0242847924822019 -0.0271745361377
-0.137979519228632 0.105158262304243 0.0160029057809262
-0.160325339039902 -0.0206425448153469 -0.0182703845195676
0.126981025763803 -0.187120227470325 0.0194607490985586
-0.0054390006598473 0.802615357023178 -0.0119275906833422
-0.122115532185147 -0.264368907993865 0.0187041056174916
0.0210744253181424 0.0993080191375047 0.0149128489009267
0.0256758236326326 0.616659614524288 -0.00294984681672621
0.0583211571586644 0.715723241085468 -0.00940023498498551
0.049504751007624 0.794408459394405 -0.0247878721738101
0.120671799540465 -0.019219614831698 -0.0274794093272135
0.0148561298473148 0.419994645696353 0.0270651902696974
0.209818510844726 -0.352728393624743 -0.025576096266528
0.103395757255039 -0.488881880815281 0.0187997817106418
-0.0961084024105924 -0.215915995901998 -0.0244332588210941
-0.0254733855029426 0.0526531684406742 -0.0115331055764776
-0.136253317631469 -0.0201842114207211 0.0169467487512044
-0.00707095636829102 0.536709497117475 0.0256385968311518
0.135021169848488 -0.337002358717078 -0.0251619429429193
0.0545231503322594 -0.420213650896481 -0.0239558759635224
-0.107257351521676 0.0974437808949772 -0.0267412095827325
-0.115621749426306 -0.242005927571298 -0.0240985145371305
-0.0652252202085896 -0.0610361946466753 -0.0258339908402562
-0.150294227921379 -0.141429064344998 0.0179684153314357
0.0287919369455065 -0.298535677594411 0.0178844595693831
-0.0776421701210413 -0.227044394721255 -0.0244845398889114
0.168621690001065 -0.383717155391286 0.0175375060249966
0.0181550586498367 -0.149881278891463 -0.0257534860099855
-0.029079436307949 0.1449218634239 0.0286243437285281
0.0153803147819478 -0.198315440961589 0.0172191406962376
-0.164066546012431 -0.00433688094378222 -0.0255635745689388
0.0142963569471303 -0.486386633217613 0.0194200229841351
0.0145765099019939 0.973898624262527 -0.0133748397160756
-0.0682646846125023 -0.213931188809362 0.0210579108713346
-0.232883097444554 -0.362256119492432 -0.00314092247903
-0.0287245599332978 0.214535298723792 0.0276836139551593
-0.233727042930093 -0.253943692469006 -0.0105291924600595
0.048408882976552 0.955112226496571 -0.0134716236155992
0.0287230297535866 0.884364111807764 -0.017967482917589
-0.158081054424483 -0.0336573697313658 0.012962745534437
-0.0152226091547765 -0.495140874207596 0.0196976129763431
-0.0142591796841628 -0.340537610131002 0.018511570899453
0.0804840515102217 0.982587546955161 0.00776407145742563
-0.0190646198514739 0.504548757833948 0.0205642521454615
-0.0559893122368035 0.91242152135867 -0.0160263826224089
0.222176330139535 -0.384268058497257 -0.0254238760105811
0.0757301751284327 -0.10730973589014 -0.0264872632054589
-0.0202695965023107 0.936478153393842 -0.0118527656621042
0.0801231018705359 -0.0391570081560992 0.0186685984922017
0.195596665912008 -0.267334634151177 0.00779383657249048
0.0564097513865233 -0.486974192518104 -0.0234592821559964
-0.0613400100430671 0.0824688849968957 -0.0269545886548589
-0.154968824800361 -0.175738604894522 -0.0243228508035432
0.167570654829873 -0.308568085529698 0.0301531767961907
-0.133699139629712 0.13240056616718 -0.0268178129457715
0.012680502328349 -0.00178156448349695 -0.0268409373246834
0.0328963850131736 -0.135506392349788 -0.0259687415872826
-0.23468948349799 -0.33925052891399 0.0200736585329778
-0.0657845625853908 -0.113586456254609 0.017152593951319
-0.0944512588348493 -0.249837809413571 -0.0241906227654905
-0.198997555799506 -0.171717368130729 -0.00567952799095297
0.0845984655032613 -0.0906510537856929 -0.0266784290515326
0.140562314827378 0.0183401737283714 0.0146739442516416
-0.0252643836145842 0.401703707282034 0.0204976844663368
0.0935286939565998 -0.281282237409589 -0.0252917229097966
-0.173067325168596 0.110677441689993 -0.0263734422593113
-0.00510166052658217 0.0568099755871702 0.0202763492732109
-0.0309894457199771 -0.272942003944306 -0.0244665797531046
-0.128538602387475 -0.239202402783338 0.0185556446310308
-0.0168780140529704 0.051664138866552 0.0301893359813761
0.0078812145435337 -0.0413192577937036 -0.0265057943304738
-0.0223709389800606 0.709174457558111 0.0105795292541285
-0.0422972588232403 -0.199201873784067 0.0176380259661365
-0.0561131894560918 0.779298473226982 -0.018930356128311
0.124233136649906 -0.0110425865384529 0.0150157338809743
0.167734328109408 -0.29565145257398 -0.0257107951458831
-0.0295862449584519 0.797186248570023 0.00781725419291297
-0.180807601413455 -0.227278080277562 0.0188375410665452
0.037887495459257 0.504623260469554 0.020051795327282
-0.0272455336511236 -0.249022232664257 0.0179089119793915
-0.0385118441369736 -0.171680711913993 0.0173997635599647
0.0700035635372066 -0.239796838103098 0.0171417416686648
0.0160987697848361 -0.282583272943829 0.0178562940700551
-0.182637301280947 -0.378133279584422 0.0200004277689258
0.0405031513405732 -0.0439728154053413 0.0158644236436136
0.0841360150242681 -0.012196668110238 0.0184344988720844
0.110366579137396 -0.427494475761038 0.0182852683573564
-0.0354837312904248 0.0900510239067527 0.0203297016493985
-0.0636285514045857 -0.404174951070696 -0.0232328582970982
-0.0103801409068333 0.811091854885338 -0.020350092303551
-0.00146745252232788 -0.0409855343309462 0.0161416127595485
0.185291689143575 -0.483793837208683 -0.0205193418345966
-0.147219313225851 -0.00260915801005772 -0.025693754825047
-0.157474090653863 -0.302103275354145 0.0192400747712399
0.0137182458558341 0.20447389069471 0.0294541884998651
-0.124992604104963 -0.346007294648131 0.019346589591428
-0.00262474725616161 0.762860311625647 0.0159327366517785
0.0410506646205595 0.802237730975137 -0.0121273447410688
-0.0691528738623429 -0.0243699640569162 0.0164983584580615
0.166133072476678 -0.247719109915009 -0.0260629508240994
-0.0206953681258022 0.384154024478419 0.00502844224327451
-0.132759534138828 -0.465857601099911 -0.0181121736191161
-0.041465584410663 -0.253041004030763 -0.0245406714171494
0.126320436483285 -0.360663564493757 0.017660800606523
-0.0670391218855489 -0.173294083190808 0.0176157598071216
0.227750208067025 -0.441807018768924 0.0175587919580899
-0.00354071746055606 -0.00932834144645314 0.0159152160724761
-0.102952098826447 -0.395949711116176 0.0195658460623939
0.00200080278588593 0.0256891521709468 -0.026974092024107
0.146776700402713 -0.24377406616844 0.016627596021448
0.0186759885409327 0.352449150386095 0.0222799585247674
-0.162817546117842 0.100112352888756 -0.0263603261356968
0.000521704648570377 0.827793903351564 0.00951284825842252
-0.14996638223601 -0.131181118761425 -0.0246974464379311
0.000571154930748999 -0.414641241064352 -0.0236108863720978
-0.139090559932865 -0.462576123800538 0.00713191757325887
-0.0502648180656713 -0.158745638447429 0.0173880057571897
-0.0270015497548747 -0.293989172776932 -0.0243339377445727
-0.000160425295166942 0.126910762567151 0.0299642817758248
-0.0177282356046468 0.826218180965945 -0.0118891797697214
-0.0306833235494178 -0.270850485873666 0.0212225699175435
0.142336442407997 -0.219156405476065 -0.0261115049982905
-0.136318055746028 -0.1449893251041 -0.0246873162371605
-0.0577897260691362 -0.239569324270428 0.0180556153171316
-0.0636292119437924 -0.489470349467245 0.0144499204743462
0.164547877320131 -0.191099578197291 -0.00586905384211902
0.152904017786299 -0.0162042152376309 -0.0277307681166707
-0.0123547437649269 -0.154920666230389 0.0170869072668083
-0.177581764993409 -0.192669247242181 -0.024027732994403
0.0157367192237524 -0.367794298721375 -0.0240749917357676
0.00868010646833904 -0.171418753160578 0.0170597860941827
0.0873604781012929 -0.378270623088933 0.018072328855198
-0.135423340801999 -0.391504921963778 0.0197684860285266
-0.00982881454260693 0.747226392970737 0.025556696908555
-0.00250919565580722 -0.118136041032948 -0.0258463584925634
0.0396511991252898 0.254836075497935 0.0196588801550441
-0.089932662975972 -0.205317943448779 0.0180221666465005
-0.185179555748288 -0.326598343501699 0.0196278070864812
0.0548120175296442 -0.371109955169387 0.0182531557387478
-0.0376925330676097 -0.0978223571574317 0.0168323155310381
0.094200045289201 -0.172348361283659 -0.0261236829861671
0.01694469428168 0.583825582417347 0.0217671967131396
0.0195566937561318 0.588925088671586 -0.00634942418462194
-0.0246939726769155 -0.498221106402214 -0.000849864403100126
-0.0254637628263194 0.436093248492366 0.0168776811137336
0.115931680230023 -0.396450935593997 -0.024574042938162
-0.000709395084715435 -0.135828818077051 0.019981754837269
-0.0712419362442879 0.0149960269748716 0.0193364559633538
-0.0580356080127522 -0.184029965044682 0.0207544140986973
0.136656622613508 -0.14569594001842 0.019076150991464
0.127075622427097 -0.0916810706835781 0.0156112633788687
-0.00172161039247824 -0.501840620102445 -0.0161913902609284
-0.092879175400277 -0.229535752121772 0.0182274192024652
-0.205001588206163 -0.350104104977238 0.0199492206736673
0.168218510228605 -0.157277347405429 0.00513666918229663
0.12716721343386 -0.0647717705021742 -0.0271795491494601
-0.105690302044839 0.122042454028288 0.0122105845493439
-0.0111429127254108 0.0676357269064198 -0.0116836837718896
0.0196035867223385 0.464081474697867 -0.00630676236737682
0.0153270291181784 0.0538877432131816 -0.0272841726157514
-0.0360794364041527 0.119439108587678 -0.00521015009966667
-0.045347554585516 -0.0200227593693322 0.0194182563231552
0.144189958199587 -0.473788238088082 -0.024187041474138
0.227282769835443 -0.322441309508881 -0.02173477271027
-0.11337052431341 -0.226679588133631 -0.0242291052430556
-0.103810858204761 -0.317969738386211 -0.0236023582825179
-0.0417644902559991 -0.0475037758075126 0.0196016397875133
0.0857727246736774 -0.174330818342954 0.0165346083913743
0.14762554845265 -0.22004347660214 0.0195640668324561
-0.023354974265707 0.192142143749567 0.00154322831017055
-0.101871459788348 -0.0601878147054872 -0.0255791785596785
-0.0220085285897198 0.310726534157739 0.0265255653020097
-0.158132420787639 0.172172267855153 -0.000710021229792107
0.100780685591048 -0.386436018698089 -0.0245394449928583
-0.0754235610510516 0.0293651349065202 -0.0264498131161868
-0.209342170406311 -0.191630025406309 0.00343076277619518
0.165836018679118 -0.0802779192416613 0.0183698600472929
-0.223683940064668 -0.274768260134665 0.0195084941248437
-0.186116927274105 -0.302535161118449 0.0194501438853916
0.123548986230145 -0.264535248962673 0.0169499689451682
-0.0135152651018508 0.000942547870417855 0.0159083660996548
0.173714134607902 -0.489188350624845 0.016200551302181
-0.153689548123641 -0.350241969704591 0.0195804702342572
0.0679383158569502 -0.215462158704353 0.0169733386417202
-0.130024370198655 -0.403653533774032 -0.0227614861852897
0.0147108740131167 -0.107503587406303 0.0196557588260257
0.0583506731317225 0.739781154787682 -0.000312760852742259
-0.00163374003057552 0.865781647919578 0.0205356505278291
0.108044654975156 -0.0817171516947134 0.0156701550296005
-0.0160191023076302 0.0756017619086918 -0.028946175842875
0.139000774576792 -0.0739757222746186 -0.0271934935755165
-0.0107792852014302 0.912766525705193 0.0272185259567719
0.153229782028932 -0.373306976213793 -0.0250152088997866
-0.139070097021452 -0.116248227169506 -0.0248888288483139
0.0394531116377843 0.10224856495417 -0.0222200233245596
0.119435311274841 -0.501857328714477 0.00380037546702323
0.0309151008795716 0.852188367131198 -0.0123579336766046
-0.0216038378334205 0.0237035597784212 -0.0267910371576489
-0.107972305094628 -0.106295171612865 0.0185195439311665
0.103645397417938 -0.0653106523538908 -0.0270055328772727
0.00165553273741173 0.73167167455372 0.0102378784645873
0.0584576503417133 -0.339409917425898 -0.0245948745085216
0.198906886877909 -0.419134045087747 0.017589258894535
0.169764334021869 -0.116990225102155 0.015496768859482
0.0236855796343202 0.802216924584678 -0.0121332196709454
0.017985982550197 -0.249457171874458 0.0175875843380302
-0.00962817351462821 0.51306422222245 -0.00120837954618291
-0.0153133585831618 0.293580582533681 0.0188644020425079
0.0384172515604332 -0.454261484125006 0.019005771283229
0.0686812541265562 -0.40637141700931 0.0184219311237109
-0.000707919517069486 0.627287438162533 0.0214901727848396
-0.225384803189042 -0.270149838925676 -0.0231030732503246
0.010568713864122 0.159691326927209 -0.0100003742640649
0.0423388536361357 0.762577155046554 -0.0119595649052806
-0.0535403795764545 -0.277614599788327 -0.0242676343354207
0.0225389501245653 0.51840820773366 0.0201074822622642
0.0193414605409835 -0.442205913925048 -0.0235378289891525
0.130416885138893 -0.0700657403306381 0.0154209709091592
-0.0655495966412205 -0.0401198964748311 -0.0259913283007139
0.071492122922602 -0.361048355134021 0.0180582075196242
0.164649678664906 -0.182329253937772 0.00791170728423032
-0.132061872301353 -0.275124936871628 0.0188572234593005
-0.0220738850937222 0.90821196522239 -0.000269975931863853
0.18179363851344 -0.385811547718786 -0.0251245533505873
0.125136913856315 -0.499025208282203 0.0187245385209445
0.188560142661293 -0.0453441609998565 0.0148209491797369
0.212979538834886 -0.419466461512994 0.0174907336793655
-0.158928318634873 -0.45078385945767 0.0101231601827449
0.0301067328410963 0.270904479916025 0.000734854610605429
0.0304161894618555 -0.388959183312511 0.0185632389237301
-0.214230205337564 -0.299130701611545 0.0196221118839101
-0.172698666408322 0.0186490683267859 -0.015343937608571
-0.049869947563129 0.0048898838598949 0.0192605718937268
0.0442334678577493 0.749493340142717 -0.016810348400076
-0.145269252712968 0.164640756114688 -0.00501938925143782
-0.0613643042389006 0.0301302186087089 -0.0265556895471411
-0.158664586611444 -0.112862011627924 0.0178105862480739
-0.158616122307366 -0.302361206609539 -0.0233338225858249
0.0100024369383965 0.0133973641579578 0.0156454215621966
-0.0739553780155091 -0.00458626954455816 0.0163818453664525
0.0593506727426824 -0.0412390619913537 -0.0268741066563224
-0.0345376951955398 -0.0714771311546579 0.0166094660219001
0.0362033412926514 0.655812070586953 0.00652666652833391
-0.0348036964262838 0.104917186677046 -0.00354482955083004
0.189407382814286 -0.0968590981930263 0.000478418367257233
0.194774013600485 -0.478085836444783 0.0176286957974126
0.103411378536621 -0.325974488542725 0.0175616912732591
0.0607855249013353 -0.267465096416554 -0.0251625072491147
-0.184448200642599 0.159763731390982 -0.0095553157038424
0.116340452268557 -0.496889131011993 -0.0238106088566161
-0.23990564016727 -0.32514173496717 -0.0129121329986453
-0.0887370918600767 -0.147090915462087 0.020693804635412
-0.0194400704478445 0.491466094340686 0.0254249942463901
0.00720336228150284 0.221831892626918 -0.0108494112100169
0.150125683521443 -0.113588505709797 -0.0269715758186165
0.186789414239223 -0.335997250283489 -0.0255401792947734
-0.0959132616979707 -0.17007945431887 -0.024785269900993
-0.0301253830161418 -0.394848250318059 -0.0235425387878331
-0.034220689369045 0.0437321690844356 0.0157303400443544
0.0358050589451393 0.0346358666616429 0.0152991041093952
-0.0922830458079808 -0.20160206499756 -0.024570408104021
0.0622893660153735 0.0287845622875871 0.0129115772673049
0.00831342209741641 -0.237159897892752 0.0337515922539572
0.0538203148262298 0.976906141727236 0.00799881532390307
0.196189903063614 -0.033984719810826 -0.00723765959498254
0.0424881926010471 -0.199294220016116 -0.0255499597609523
0.0971617048345785 0.0205029038583206 -0.027613475882932
0.0513312815362163 0.736926907255458 -0.0118318436571036
0.239019030470852 -0.398119510517522 -0.000184073802961812
0.105154637313627 -0.0304493516756802 0.0153008636480833
-0.100171372810575 0.0289712942895467 -0.0262699251410545
0.0425256459946763 -0.49695728255015 -0.0232839342727589
-0.104481124277298 -0.17647158250478 0.0210305885006199
-0.0158309712750686 -0.0904628730662952 0.0197436083268965
-0.182828870896698 0.0612251106316936 -0.0117990258079202
-0.00315852370288858 0.0985837618016309 0.0150909613809752
0.0117847539665243 0.342193119649409 0.0272132982220339
-0.0840062105750777 -0.473124307472377 -0.0225610975322232
-0.15050177966466 -0.207644086632578 -0.0241050623323986
-0.0910539575817491 -0.3265557413624 -0.0236295499623372
-0.00733133206837297 -0.0569565361018478 -0.0262787122875717
0.15471045389197 -0.169054246408427 -0.0265826807145642
0.0238949355141818 -0.423767144182581 0.0188738882721508
0.0343461112738461 0.0560755370241552 0.0212014978982946
0.0298775535337396 -0.0115144699307137 0.0188162777147243
-0.0873470609186662 -0.329966841257483 0.0189542922155945
0.146065298335353 -0.329669215899129 -0.025296413672774
-0.0140595794131827 -0.429731006142478 -0.0233908262797275
-0.105204564908434 -0.0281753035640826 0.0167847095579141
0.027394362167138 0.368503209975186 0.021559610675592
-0.00828428559999278 -0.298883630483676 0.0181534151188074
-0.0236894212693083 -0.172814939292821 0.0173048141248485
0.0254916783829217 0.722169072578278 -0.0115353229642878
-0.159308416207581 -0.0753170286334511 0.00452056849203265
0.105976785317326 -0.100185357360123 -0.0267563859509976
0.0173677011148803 0.990967447479304 0.00565973213641252
0.015717709559609 -0.392538855640679 0.0186978330774243
-0.062852196045 0.0610801546720589 0.0175022335728596
0.0340870507554758 -0.161782120151908 0.0199295504131721
0.0281713887751493 -0.381854110017534 -0.0240582446772658
-0.00433811339855756 0.858249963632668 -0.0123180975915081
0.132373513829581 -0.0524393806264332 -0.0273111855511081
-0.0448123049252552 -0.24690281347548 0.0272778486460891
0.00061368722802629 -0.330690918061657 -0.0242512610646933
-0.120225480286372 -0.0287662332946121 0.016897600046495
-0.168114981712737 0.0458160851964167 -0.025912889212995
-0.209869825970896 -0.388849093682924 -0.022302197483151
0.00476248748094198 0.710578605801779 0.0143988565764678
0.236131822944114 -0.415976346488651 -0.0116571679713955
0.00425171889793148 0.185206197968739 0.0232873551655799
0.0544653763214593 -0.139408247071224 0.0164903825637865
0.139893403796698 -0.385783237101763 0.0177593215465212
0.207427400903521 -0.380085330620216 0.0172333429317935
-0.0562455187757303 -0.351412666831162 -0.0236876285994264
0.19065080580033 -0.0186504013923386 -0.0279839655106947
-0.157496969046875 -0.438969886349891 -0.0223019720261701
-0.021464507298301 0.526198529842019 0.012296555474616
-0.00443369874523687 0.172234694765012 -0.00984136789899712
-0.0302182339941408 0.0628592628027864 0.0155559585438208
-0.10436664474684 -0.251550471238383 0.0184759875602681
-0.0145710904471755 0.663126652028433 0.02368640370096
-0.0122835577006906 0.766434750958897 -0.0242780829122341
-0.0121139698290426 -0.0333793774432316 0.016159377817859
0.090328179173187 -0.339424598739447 -0.0248239921011149
-0.162024044727367 -0.0902971043630534 0.0106155079402889
0.0502742827281816 -0.114210793471247 -0.026255085193853
-0.181065497223573 0.051839242010496 0.000831993213304869
-0.145717496351045 0.00651571290021818 0.0168096815412675
-0.058092755624921 -0.332202708493688 -0.0238198885536782
0.0851635570679168 -0.430705300221105 -0.0240915754941149
-0.154184185377432 -0.271079432013671 -0.0235997420894549
0.0126515703180317 -0.291481345791848 -0.0246346839773776
-0.0400681521089073 -0.411089884086215 0.0192348344871711
0.0708471997123713 -0.216955938130075 -0.0256195112735292
-0.0656700943936368 -0.475300799727219 -0.0226780113693593
0.146848124531617 -0.0659160780952448 0.0183959891193814
-0.149252585823617 -0.0438400346658073 0.0172169154883091
-0.163721420638068 0.18328518532032 0.0052055712252626
-0.023725439258675 0.02519760667782 0.0228094413909978
-0.0597994437084218 -0.372092957894916 -0.023504358058375
-0.081079435561408 -0.192509864759585 -0.0247188273596924
0.145745118729939 -0.0912772137985881 -0.0271086938708128
0.0246571944422813 0.411280242855026 0.0259485166717443
-0.0179103524845515 -0.444799778506429 -0.023250159310462
0.00110620382782312 0.371143880674407 0.0275213615413517
-0.0335693485992556 0.0402913995808982 -0.0285523721059322
0.0253536407063136 0.837551772356442 0.01800655846703
-0.184455484635339 0.122633941954025 -0.0263861464412314
0.164019886372371 -0.492968301389375 -0.00612182250450988
0.0699588099305153 -0.473788471678386 0.0189248226771662
0.0218070789126822 -0.0742250156507936 0.0193510541545959
0.0226754469422745 -0.310124447344594 0.0180170895721005
-0.0155805764553809 0.16900353108901 0.0292294339267139
-0.0854555259600774 0.0736524246159527 -0.0267152491101023
-0.0158024393650239 -0.361071248656998 -0.0239036052021638
0.0764219165934423 0.968343462047711 -0.01377251789807
-0.0906142541233906 -0.0315437143651655 -0.0258779762678868
0.157543183783858 -0.323527613831141 0.0171573958108221
0.157107855795042 -0.434007005827999 0.0180011318755416
0.167744840050945 -0.43689447729227 -0.024637290638462
0.160780138038145 -0.26094983320108 -0.0259262605749998
0.187070026565895 -0.0717380554345029 -0.0275532911862565
0.0276939275859914 0.787703303751306 0.00962520630621237
0.0552635711491742 -0.0901422052248297 -0.0264739297198556
0.195305303860266 -0.411183136930056 -0.0250292094992843
-0.176266597835976 -0.131316378135991 -0.0161742282489539
0.0367403818536386 -0.333425151422257 0.0180976837669969
0.0215321286672006 0.270837713462027 0.0223353459592214
-0.00305771039556475 -0.38430707470418 0.0187679080569477
0.0805421242149644 0.02210533952682 -0.0275077736763869
0.0632563445754 0.0123364561444482 0.0152732810291022
-0.0392758220290169 0.92127846757973 -0.0103230560359798
-0.0103854178809242 0.96568101208548 -0.0112627773429375
0.038644288444786 0.0574231656066931 -0.0283034241819464
-0.0841348487538817 -0.257330988869096 0.0183760484772624
-0.19252096564068 -0.28986059973522 -0.0231817491917662
-0.171643390155365 0.0159356447822261 0.00270338132521457
-0.00783540920481843 -0.349809927994152 -0.0240481609178812
0.0131414818692182 0.308404975107468 -0.00899547528399595
-0.162811456892482 -0.211066900388799 -0.0239914245874885
-0.178576361770057 -0.33754560689118 0.0196629434950482
-0.0796799983939543 0.0277055632005396 0.0192998214604812
-0.0856452727575297 -0.0116668422099114 -0.0260641361706864
0.0469283111034883 -0.27460560276079 0.0175755067267205
-0.236542804263684 -0.267029039291218 0.00504098386054444
