0.024965 0.30298 0.18812
-0.04757 0.12161 -0.056516
-0.089111 -0.18951 -0.24951
0.060874 0.69938 0.55899
0.066668 -0.094444 0.038274
-0.043195 -0.30265 -0.22907
0.039222 -0.039825 0.017322
0.030885 0.6407 0.5091
-0.042103 0.0028124 -0.021727
0.076095 -0.41429 -0.053588
0.027745 0.3498 0.22641
0.015916 -0.21552 -0.17201
0.10774 -0.0953 0.12393
-0.08036 -0.18718 -0.33264
0.0093576 -0.18968 -0.042908
0.04311 -0.33613 -0.070365
-0.037443 -0.28862 -0.31063
-0.065537 0.21946 -0.028545
0.061354 -0.17781 -0.036404
0.013217 0.22243 0.18923
-0.033018 -0.17742 -0.2267
-0.025022 -0.076706 -0.14986
0.016138 0.60026 0.40608
0.027365 0.76285 0.54628
-0.039141 -0.086275 -0.075311
-0.050491 0.10577 0.020358
0.035372 -0.014455 0.061235
0.040492 0.64884 0.48228
0.03554 -0.20642 -0.10224
0.025362 0.026013 0.03242
0.0067217 0.28506 0.18217
0.039184 -0.14572 0.049216
-0.062554 -0.011875 -0.17757
0.053457 0.34953 0.29258
0.040901 0.53077 0.45433
0.054097 -0.37134 -0.17399
-0.0036463 0.0025442 -0.060691
0.076671 -0.041268 0.09497
-0.0094381 0.70862 0.47424
-0.077113 0.017367 -0.085452
0.060523 -0.33782 -0.138
0.017352 0.044161 0.079279
-0.012281 -0.36723 -0.31058
0.062963 0.57452 0.4869
-0.073045 -0.34742 -0.33981
-0.042979 0.065534 0.01854
-0.071535 -0.30273 -0.28862
0.0028988 -0.33917 -0.15682
-0.060014 0.1954 0.0011809
0.030983 -0.13762 -0.065622
0.040413 -0.074515 -0.028333
0.083883 -0.3469 -0.10262
-0.078476 -0.060147 -0.24341
0.072729 -0.32738 -0.018934
0.038365 -0.20427 -0.12417
0.022431 0.37273 0.30334
-0.15182 -0.13145 -0.34218
0.031811 0.74094 0.57833
-0.055776 0.01461 -0.14557
0.093841 -0.28013 -0.084878
-0.055717 -0.23697 -0.21127
-0.0016788 -0.063581 0.018569
-0.10029 -0.27824 -0.37588
0.073709 0.6044 0.47555
-0.036593 -0.14841 -0.11167
-0.029615 -0.33855 -0.22466
0.059036 0.75539 0.59136
0.028484 -0.2791 -0.062787
-0.088305 -0.12075 -0.30472
0.034241 -0.41659 -0.143
-0.087814 -0.21451 -0.36663
0.029445 -0.22617 -0.025237
0.01464 0.27601 0.22826
0.037883 0.43495 0.35744
0.068915 -0.071082 0.058674
-0.024012 -0.011838 0.0064176
0.063201 0.63092 0.52574
-0.011028 -0.26881 -0.13882
0.067684 0.7687 0.61983
-0.036857 -0.25993 -0.18279
0.027471 -0.14215 -0.11464
0.052938 0.50519 0.37968
0.038096 0.55607 0.38391
0.097863 -0.18514 0.055709
-0.10159 -0.20577 -0.28663
0.0075735 0.68683 0.52126
0.012733 -0.30606 -0.21701
0.0080748 -0.23182 -0.073889
0.0074873 0.63218 0.48011
-0.10653 0.19288 -0.02938
0.023102 -0.37183 -0.13633
0.07544 -0.062119 0.13579
-0.015345 0.046402 -0.039349
0.026151 0.58204 0.49032
-0.081808 -0.11432 -0.18371
0.087442 -0.48476 -0.11978
-0.054507 0.074955 -0.1024
-0.046009 0.079575 -0.081453
-0.051072 -0.016319 -0.053396
-0.13571 -0.055188 -0.25904
0.034615 0.11265 0.1196
0.095538 -0.29904 -0.031179
-0.062683 0.18985 -0.042431
-0.050364 -0.28786 -0.33725
-0.044279 -0.20026 -0.16261
0.0059517 -0.33855 -0.25305
0.00065857 -0.12687 -0.15662
0.036706 0.091391 0.063783
0.028621 0.19669 0.13189
-0.1127 -0.059489 -0.21176
0.098902 -0.1207 0.088316
0.1165 -0.38887 -0.05476
0.045915 0.75471 0.61719
-0.040114 -0.34117 -0.35152
-0.08885 0.1496 -0.086637
-0.0061795 -0.001694 0.050664
0.013798 0.42005 0.31604
0.044779 0.29371 0.21735
-0.0084828 -0.39968 -0.22133
0.012227 0.070899 0.0043872
-0.015955 0.12093 0.060518
-0.057741 -0.15602 -0.16117
0.020963 -0.27033 -0.17575
0.05398 -0.044789 0.10762
0.041984 0.361 0.25817
0.017661 0.020931 -0.024743
0.0025282 0.73078 0.54016
0.0060077 -0.051952 -0.09231
-0.031862 -0.0036106 -0.1076
-0.05317 -0.20442 -0.28713
0.024194 -0.039298 -0.029568
0.050363 -0.11127 0.095806
-0.0036103 0.0071731 -0.0019398
-0.0032168 0.59878 0.43952
0.043569 0.65312 0.54407
-0.033499 -0.40952 -0.28046
0.045002 -0.26896 -0.12436
0.067253 -0.13096 0.014992
0.083177 -0.23993 -0.024733
0.051809 0.68684 0.48724
-0.074619 0.048607 -0.059246
0.00034132 0.20127 0.1554
0.01749 -0.24399 -0.062295
0.029141 -0.10853 -0.089765
0.017525 -0.14561 0.0038204
0.094733 -0.42311 -0.12344
0.037071 0.69518 0.58817
-0.025965 0.12182 -0.011015
-0.058104 -0.056586 -0.09519
-0.049622 -0.34067 -0.26809
-0.11777 -0.090405 -0.33298
0.02727 -0.46587 -0.21857
0.023131 0.1236 0.056198
-0.019233 -0.083698 -0.031787
-0.11733 -0.18642 -0.30668
0.00071529 -0.162 -0.18176
0.037004 0.39996 0.27421
-0.13078 -0.15259 -0.31221
0.071578 -0.43003 -0.17669
0.038479 -0.19149 0.017011
-0.050984 -0.098947 -0.10868
-0.029444 -0.10846 -0.18046
-0.020246 -0.19109 -0.10601
0.0042382 0.14752 0.12803
0.041738 0.6071 0.41597
-0.052808 -0.13165 -0.23752
0.046444 -0.48357 -0.18443
0.015562 0.55756 0.42112
-0.11412 -0.022678 -0.2004
0.0034007 -0.15363 -0.031214
-0.086921 -0.065489 -0.26472
-0.099933 0.033589 -0.12247
-0.07455 -0.10429 -0.16174
0.024833 -0.21045 -0.15302
0.09511 -0.38773 -0.035818
0.030416 0.55963 0.4844
0.018734 0.052344 0.036182
0.022943 0.015186 0.052683
-0.011517 -0.1461 -0.057479
-0.0029853 -0.19367 -0.17456
-0.11246 -0.26501 -0.34921
0.031535 0.26308 0.18918
0.021626 0.49967 0.35206
0.061631 0.59609 0.50275
-0.030243 0.027066 0.023619
0.0028527 0.088038 0.056911
-0.10676 0.091371 -0.098019
-0.049543 0.14727 0.0018142
-0.018719 -0.22293 -0.22723
0.04797 -0.38038 -0.089864
0.0684 -0.27098 -0.012884
0.044599 0.45374 0.32577
-0.13497 -0.089381 -0.27857
-0.021239 -0.28003 -0.27085
-0.027611 -0.038882 -0.019291
0.051717 -0.23899 0.012913
-0.029611 -0.33109 -0.3227
0.022448 -0.17308 -0.11747
-0.0096946 0.66558 0.46391
0.019709 0.50962 0.37572
0.087209 -0.31343 -0.065605
0.068485 -0.19155 -0.023097
-0.094986 -0.15506 -0.34178
0.046063 -0.46337 -0.14958
-0.086023 0.015877 -0.16091
-0.017398 -0.047766 -0.10687
-0.066723 0.079309 -0.12512
-0.065351 -0.043842 -0.20491
0.079583 -0.4469 -0.068152
0.039162 -0.17448 0.029859
-0.14693 -0.16438 -0.35403
-0.10271 -0.23404 -0.30796
-0.11273 -0.10722 -0.24386
0.038263 0.22363 0.20231
0.014075 -0.43043 -0.26986
-0.11034 0.1689 -0.05348
0.039097 0.77151 0.5617
0.019432 0.17299 0.086001
0.11095 -0.33369 -0.088458
0.00094222 0.76532 0.52119
0.051182 0.73045 0.52647
0.048564 -0.29535 -0.1346
0.01535 -0.071966 -0.09356
-0.007012 0.053248 0.089963
0.10372 -0.42865 -0.059744
0.03498 -0.40203 -0.23472
0.030509 0.61649 0.52227
0.047211 0.59872 0.45557
0.014702 0.11266 0.11216
0.054401 -0.4545 -0.12612
0.096042 -0.35442 -0.030773
0.018215 0.21797 0.11609
0.094769 -0.1615 0.088327
0.076111 0.71549 0.63003
-0.07807 -0.23093 -0.25414
0.016325 0.62144 0.42532
0.039056 0.50078 0.40582
-0.064724 0.15263 -0.071703
0.057222 -0.28909 -0.11222
0.056053 -0.44043 -0.21627
0.044773 -0.18309 -0.067194
-0.058769 -0.2446 -0.32585
0.035703 -0.33858 -0.19062
0.029469 -0.055686 0.089258
0.053844 -0.35224 -0.1617
0.017304 0.4744 0.34814
-0.044112 -0.11212 -0.20615
-0.070256 -0.13356 -0.27543
0.050016 -0.079343 0.0058942
-0.068692 -0.0087314 -0.085294
0.093332 -0.38207 -0.098828
-0.016547 -0.019168 -0.085888
0.032099 0.17763 0.16703
0.067188 0.57885 0.45551
0.0019624 -0.11844 -0.13854
0.0076797 -0.25107 -0.087645
0.032686 -0.10826 -0.04234
0.054016 0.32733 0.26344
0.02445 0.60886 0.47422
0.039511 0.53049 0.42314
-0.088926 -0.023325 -0.13757
-0.021789 -0.16067 -0.088827
-0.014055 -0.33077 -0.18678
0.0065043 -0.030739 -0.045264
-0.031863 -0.088855 -0.16482
0.032839 -0.09479 0.070082
-0.064668 -0.27182 -0.35651
0.015459 -0.36242 -0.24912
0.018469 -0.0068382 -0.041306
-0.0095213 0.066957 0.052008
-0.023797 -0.095154 -0.049059
0.02649 0.37703 0.24956
-0.051557 0.042279 -0.11814
0.036337 0.13616 0.10925
-0.0047315 0.62059 0.45089
0.075048 -0.47589 -0.097136
0.065435 -0.11296 0.12631
0.022573 0.022714 0.0069381
0.016888 -0.24017 -0.18526
-0.076894 -0.32434 -0.31438
-0.088267 0.094857 -0.056851
-0.087556 -0.2751 -0.3037
0.058387 -0.11643 0.0061283
-0.024842 -0.26086 -0.26555
0.027578 0.67239 0.52343
0.0082611 -0.4057 -0.29328
0.023669 0.66752 0.46181
-0.015672 0.038675 0.020544
0.069657 -0.26511 -0.070016
-0.11717 -0.16374 -0.29111
-0.034859 0.088399 0.055099
0.0054999 -0.31608 -0.13586
0.033586 0.0091281 3.7847e-05
-0.054971 -0.10398 -0.22348
0.063161 0.56009 0.43896
-0.098081 -0.15728 -0.24671
-0.037797 0.10886 -0.044559
-0.0033528 -0.030772 0.037079
-0.042036 -0.2608 -0.3016
-0.10799 -0.25196 -0.33106
-0.043952 -0.37654 -0.28026
0.019253 -0.061159 -0.048399
0.0040183 0.25822 0.19855
0.025073 -0.30025 -0.084145
-0.087568 -0.32376 -0.3538
-0.046162 -0.273 -0.21539
-0.096044 -0.10207 -0.20537
0.10831 -0.43309 -0.10163
-0.004593 -0.22023 -0.19576
0.056459 0.63062 0.56327
0.052143 -0.030475 0.043164
-0.11135 -0.1992 -0.38825
-0.10903 0.21345 -0.020823
0.052454 0.47392 0.38943
0.06035 -0.14405 -0.0082879
-0.012117 -0.16547 -0.1748
0.073876 -0.40287 -0.15364
0.039 -0.028232 -0.0117
-0.057731 0.15623 -0.054604
0.047294 0.78661 0.58904
0.044865 0.67767 0.57002
0.0025965 -0.096718 -0.13324
0.090931 -0.11077 0.13284
-0.068311 0.10963 -0.0050393
0.035798 0.69823 0.50558
0.036087 0.6256 0.45743
0.10192 -0.36585 -0.077479
-0.057565 0.11016 -0.085183
0.014927 0.70373 0.50166
-0.05307 -0.21451 -0.19063
0.0084595 -0.022141 0.06767
0.022608 -0.39869 -0.1554
0.030555 0.67318 0.56033
0.010192 -0.43839 -0.20811
0.059129 0.45413 0.37025
-0.0093111 -0.2969 -0.15408
0.055662 -0.062458 0.036641
0.079425 -0.20878 0.030787
-0.08254 -0.0052017 -0.19791
-0.015519 0.05278 -0.0021964
-0.0097871 -0.043731 0.014872
-0.05589 -0.30717 -0.25875
-0.12928 -0.14396 -0.36673
-0.03113 0.071619 -0.055559
0.11256 -0.46368 -0.10325
0.089536 -0.3343 -0.074729
0.041241 -0.23665 -0.11057
0.057915 0.7197 0.56642
0.05119 -0.32125 -0.043414
-0.10617 -0.29561 -0.35654
0.036939 0.32952 0.27998
-0.019929 -0.41429 -0.25517
0.0019166 0.25141 0.17439
-0.14528 -0.18957 -0.36747
0.047292 -0.38298 -0.19609
-0.082054 0.059471 -0.12574
0.099301 -0.48195 -0.14392
0.032493 -0.35976 -0.10851
-0.028511 -0.21219 -0.13752
-0.020848 0.1114 0.011204
-0.14169 -0.11875 -0.31239
0.048695 0.6758 0.5176
0.055833 0.38137 0.30368
-0.070251 -0.21552 -0.33044
-0.053021 -0.040546 -0.17681
0.050626 -0.15156 -0.041303
-0.099029 0.0046257 -0.14001
-0.041594 0.035616 0.0022523
0.10032 -0.16368 0.062433
0.043089 0.10362 0.087049
0.019773 0.70908 0.53167
-0.018491 -0.37065 -0.22285
0.019362 -0.23598 -0.15604
0.060182 0.54797 0.47047
-0.080117 0.1747 0.013472
0.016507 0.32953 0.20587
0.016921 0.27814 0.16613
-0.10196 -0.10894 -0.32546
0.0025248 0.1456 0.06099
-0.0017378 0.66985 0.49058
0.033191 -0.1561 -0.073392
0.10037 -0.32945 -0.031821
0.03083 0.064921 0.087283
-0.030039 0.050897 0.040045
-0.012045 -0.25369 -0.23387
0.028752 0.16382 0.11037
0.037691 -0.0011647 0.040059
0.032275 -0.11498 0.055347
0.046794 -0.13097 0.075088
0.08281 -0.15029 0.027118
-0.093944 -0.18699 -0.36103
0.029709 0.74977 0.53239
0.083173 -0.08341 0.080331
0.083809 -0.48305 -0.16752
-0.09512 0.12156 -0.095771
0.045512 0.65955 0.4578
-0.056593 -0.034252 -0.077026
0.030235 -0.047753 -0.046085
0.053935 -0.22839 -0.078374
0.008508 0.070359 0.026808
0.010011 -0.1238 -0.10037
0.071444 0.68653 0.53538
0.076863 -0.10646 0.051609
0.026375 0.56906 0.39909
0.035224 -0.13787 -0.093518
0.041924 -0.097986 -0.016049
0.033787 0.61356 0.49697
-0.087908 -0.084966 -0.27987
-0.062683 0.010311 -0.059895
-0.13056 -0.064715 -0.28433
0.011666 -0.19184 -0.14257
-0.1035 -0.03379 -0.24791
-0.014998 0.02874 -0.058035
0.0060196 -0.15307 -0.1284
0.064082 -0.3879 -0.061091
-0.018768 -0.39284 -0.30955
-0.083044 0.10931 -0.036183
0.062617 -0.40822 -0.077803
0.014232 -0.33055 -0.2303
0.023297 -0.13127 0.02556
0.038551 0.32579 0.23749
-0.0057958 -0.21417 -0.09116
0.028792 0.64409 0.53709
-0.066168 -0.36678 -0.32035
-0.1253 -0.25624 -0.37427
-0.079943 -0.13823 -0.19584
-0.12286 -0.11238 -0.26858
-0.075319 -0.19693 -0.22554
0.048095 0.4969 0.36252
0.0023273 -0.097014 -0.098522
-0.0019279 -0.32777 -0.26236
-0.025582 -0.35902 -0.33299
0.078551 0.74329 0.62558
-0.020087 0.064181 0.028144
-0.032388 -0.20207 -0.24192
0.10803 -0.14755 0.091876
0.024055 0.22163 0.1398
0.05054 0.2733 0.23479
-0.038453 -0.14409 -0.21573
0.041517 0.19661 0.1608
-0.039485 -0.053541 -0.15712
-0.06778 -0.19064 -0.30855
0.030172 -0.43779 -0.16577
0.040436 0.55764 0.42094
-0.053202 -0.076522 -0.098281
0.06861 -0.05491 0.068891
0.06235 -0.40431 -0.1788
0.0071902 0.5847 0.42144
0.02323 0.73045 0.5544
-0.003783 0.015451 0.030039
0.020317 -0.012228 0.031575
0.056063 0.42539 0.3436
0.036981 0.24105 0.17864
-0.098409 0.16815 -0.028944
-0.0269 -0.16174 -0.20332
-0.093782 -0.038648 -0.15805
0.078344 -0.22 -0.021499
-0.13344 -0.10714 -0.33736
-0.017638 0.008146 -0.077402
-0.067177 -0.078689 -0.12907
0.028018 0.041541 0.048421
-0.014747 -0.18128 -0.087873
0.036473 0.55647 0.46395
-0.013255 -0.10169 -0.1483
-0.041304 -0.18397 -0.14543
-0.023984 -0.30628 -0.29423
0.011476 -0.45304 -0.23871
-0.083873 -0.15109 -0.31579
0.04239 -0.24544 -0.010996
0.01091 0.36029 0.24656
-0.0059433 0.018693 -0.038212
0.026117 0.39412 0.32139
0.047048 -0.22327 -0.089395
-0.012535 -0.35791 -0.2018
0.033676 -0.22929 -0.13795
0.049246 0.4231 0.31655
0.014698 -0.18804 -0.15607
0.047584 -0.31875 -0.15236
-0.045614 -0.31431 -0.34503
0.01198 -0.014905 -0.023139
-0.11092 0.14761 -0.073443
-0.090643 -0.26091 -0.38595
-0.0046599 0.12626 0.097508
0.031286 -0.26127 -0.15962
0.052424 -0.17431 0.057818
0.037166 0.52615 0.36553
-0.086725 0.0097912 -0.11072
-0.13777 -0.091583 -0.31747
0.074359 -0.2416 -0.044364
0.049396 0.29885 0.2332
0.011554 0.65321 0.47662
0.077333 -0.45721 -0.0798
0.02084 -0.11121 -0.069186
0.00042411 -0.29136 -0.12992
0.0073432 -0.10993 0.0063936
0.028926 -0.2875 -0.17056
0.027383 0.54846 0.43983
0.027426 0.079694 0.050392
0.035274 -0.019856 0.022437
0.055081 -0.30867 -0.026797
-0.084349 0.20973 -0.051126
-0.027454 -0.32035 -0.20791
-0.054771 0.064526 -0.0068928
-0.073391 -0.084861 -0.24932
-0.1264 -0.12691 -0.28578
-0.00072875 -0.26504 -0.11468
0.04381 0.37733 0.28675
0.025531 -0.38581 -0.24367
-0.082781 -0.075588 -0.15975
0.0074189 -0.071562 -0.070748
0.02574 0.76701 0.58309
0.019936 0.04028 -0.0042687
0.052262 -0.46978 -0.21016
-0.068608 0.13603 -0.091001
0.1053 -0.45436 -0.12224
-0.017573 -0.065473 -0.12668
-0.080697 0.0063813 -0.17897
0.011159 -0.073014 0.039187
0.097509 -0.059402 0.12822
-0.0010164 0.19863 0.1236
0.039672 -0.42612 -0.24105
-0.07442 -0.28122 -0.38316
0.052594 0.70711 0.58609
0.046318 0.61823 0.47396
0.041857 0.70986 0.52611
-0.068902 -0.12902 -0.16648
-0.043501 -0.095469 -0.19369
-0.071877 -0.15518 -0.19029
-0.045613 -0.1608 -0.13892
-0.1026 -0.17272 -0.26656
0.011501 0.6064 0.45391
-0.092561 0.17875 -0.009552
0.018084 0.66927 0.5013
0.047525 -0.21314 0.021469
-0.020559 -0.12323 -0.16417
0.065021 -0.45406 -0.10353
0.015513 0.07218 0.076776
0.064972 0.659 0.54393
-0.031667 -0.35803 -0.24204
0.031014 0.31423 0.21494
-0.012587 -0.30651 -0.27046
0.032421 0.57953 0.41881
0.02674 0.11658 0.075004
0.077399 -0.29053 -0.07083
-0.022659 -0.24056 -0.14428
-0.0013432 -0.17474 -0.1584
-0.083222 -0.30315 -0.31343
0.0028322 -0.1312 -0.12041
0.0058245 -0.2732 -0.20945
-0.10327 0.19703 -0.047993
0.052488 -0.35996 -0.066675
0.087735 0.72641 0.64677
-0.12136 -0.041221 -0.24383
-0.027079 0.071345 0.055819
0.09367 -0.39864 -0.10924
-0.043385 -0.19982 -0.2635
0.021597 -0.012888 -0.0015976
-0.0099701 0.68195 0.45189
-0.022947 -0.19717 -0.21881
0.033771 -0.12354 -0.050317
0.057041 0.58283 0.4727
-0.0048906 0.033693 -0.025933
-0.0029126 0.030752 0.079303
0.010155 0.34274 0.23016
-0.062713 -0.07953 -0.22333
0.034242 0.010118 0.023644
0.090156 -0.10191 0.075013
0.033204 0.47895 0.32288
-0.044772 -0.0067949 -0.13684
-0.031957 -0.28405 -0.19299
0.089127 -0.18189 0.026719
0.013932 0.55131 0.3976
0.015946 0.58544 0.44065
0.041507 0.59383 0.4997
-0.037531 -0.12633 -0.098819
0.0034815 -0.40438 -0.19937
0.075232 -0.28444 -0.091815
-0.087103 -0.16632 -0.22973
-0.087751 -0.23419 -0.37971
-0.060591 -0.28509 -0.2538
0.017275 0.10236 0.051987
0.0018765 -0.41638 -0.2108
0.0043682 0.28707 0.20773
-0.00032963 -0.20782 -0.075427
-0.056881 0.089797 0.0056423
-0.04296 -0.3325 -0.24861
-0.050708 -0.019372 -0.15774
-0.08891 -0.21048 -0.26317
0.094331 -0.35065 -0.075638
0.0056468 -0.3619 -0.16631
-0.0071378 -0.43287 -0.26527
0.061115 -0.31274 -0.11992
-0.00084332 0.68813 0.49561
0.006332 0.05013 0.0086606
-0.0043751 -0.1821 -0.18818
-0.066923 0.12733 0.0097541
0.066213 -0.43101 -0.085554
-0.081104 -0.20922 -0.34899
-0.013969 -0.11572 -0.042236
-0.041268 0.12922 0.00090918
-0.012658 -0.088889 -0.12453
0.014907 0.35394 0.28265
0.069778 -0.33181 -0.11454
0.030791 -0.059256 -0.013422
-0.064479 -0.21561 -0.21532
0.017315 0.1955 0.17324
0.016647 0.15839 0.069567
-0.036194 0.072718 0.041772
-0.10339 -0.17046 -0.36975
0.043556 0.13626 0.13217
0.044726 -0.3578 -0.18458
-0.031746 -0.26795 -0.2848
0.076246 -0.10577 0.14421
0.018157 -0.20675 -0.035899
0.071677 -0.36588 -0.13342
0.069137 -0.17379 -0.0098105
0.019298 0.23944 0.20605
0.011128 -0.2116 -0.053912
0.036849 0.71486 0.5714
-0.089458 0.031799 -0.14096
-0.10625 -0.15005 -0.36207
-0.11155 -0.042563 -0.19798
0.060651 0.50826 0.40826
0.025317 0.19081 0.10931
-0.017795 -0.3437 -0.30636
0.059432 -0.12846 0.1033
0.030764 -0.24459 -0.034834
0.019804 0.45111 0.35522
0.027579 -0.083255 -0.043833
-0.020057 0.070126 -0.033316
-0.00087435 -0.046813 -0.071544
0.076875 -0.28745 -0.021301
-0.0072724 -0.093775 -0.013443
-0.037027 0.12909 -0.029359
-0.10325 -0.083821 -0.31131
-0.013919 0.039138 0.061827
0.021583 -0.15369 -0.096141
-0.013684 -0.0078433 0.030782
0.067608 -0.48807 -0.12093
0.017748 0.41022 0.274
-0.046278 -0.13032 -0.11986
-0.077697 0.069213 -0.051875
-0.070156 -0.22346 -0.23251
0.024476 -0.30831 -0.19386
0.081428 -0.13431 0.0425
0.0014137 0.08531 0.012432
-0.011332 -0.1472 -0.16089
0.00084028 -0.35109 -0.2722
0.030745 -0.47626 -0.20063
0.032691 0.68435 0.48974
0.04481 0.26466 0.21244
-0.096191 -0.13413 -0.33026
0.082343 -0.35835 -0.11129
0.047529 0.39972 0.29606
0.034057 -0.39562 -0.1293
-0.0044997 0.11723 0.042054
0.054471 0.45063 0.34704
0.082225 -0.065913 0.090087
0.037324 -0.27615 -0.14531
0.080732 -0.079183 0.14238
0.025155 -0.32909 -0.20639
-0.0075929 -0.3547 -0.29233
0.10218 -0.10071 0.10107
0.046501 -0.056741 0.12431
-0.017426 -0.21687 -0.11739
-0.092186 0.080483 -0.11035
-0.05762 -0.21829 -0.30578
-0.025281 -0.25897 -0.16214
-0.090197 -0.22941 -0.27858
0.046437 0.57065 0.50716
0.015308 -0.16377 -0.013023
-0.035725 -0.29479 -0.20811
-0.095162 0.19705 -0.0027225
0.053397 -0.19643 -0.058045
-0.059542 -0.098484 -0.12633
0.045483 0.7272 0.59781
0.0054735 0.024952 -0.010044
-0.10404 -0.186 -0.2785
-0.028768 0.10069 0.030425
-0.0068204 0.13089 0.078827
0.077339 -0.19971 0.051815
0.001154 0.7103 0.51892
-0.056213 -0.25815 -0.22652
0.00056051 0.22288 0.16445
-0.08262 0.042795 -0.079943
-0.085507 -0.30626 -0.36603
0.029931 -0.029835 0.077868
0.0031824 -0.31533 -0.24328
-0.051713 -0.35391 -0.33941
-0.0036756 -0.16467 -0.053481
0.10206 -0.13415 0.10806
0.047476 0.61195 0.52359
0.047222 0.62619 0.43828
-0.04808 -0.26997 -0.32045
-0.025102 -0.14278 -0.083771
-0.016333 -0.40889 -0.29279
0.0066667 -0.20821 -0.17162
0.0067161 -0.13977 -0.014949
0.088289 -0.42901 -0.049305
0.056378 0.73646 0.6269
-0.067698 -0.059005 -0.11695
-0.059217 -0.33011 -0.28114
-0.090534 0.1716 -0.073343
0.053231 -0.45703 -0.2318
0.11872 -0.439 -0.083743
0.016139 0.088818 0.038212
-0.052833 -0.28285 -0.23601
-0.086589 -0.093553 -0.17981
-0.049023 -0.23766 -0.19338
0.01897 -0.23357 -0.17389
-0.062398 -0.13213 -0.25798
0.045095 0.014346 0.034198
0.06521 0.63252 0.50299
-0.060471 -0.18305 -0.28811
0.014002 -0.28852 -0.20257
-0.087473 -0.10261 -0.2908
0.073249 -0.11819 0.028588
0.0032992 0.097843 0.099096
-0.056095 -0.19187 -0.18179
-0.059515 0.13122 -0.075139
0.086892 -0.044129 0.11526
-0.034194 -0.24253 -0.27288
-0.018655 -0.0643 -0.017552
-0.035137 -0.39284 -0.2727
0.030666 0.29589 0.20409
0.038173 -0.31437 -0.066122
0.035906 0.57269 0.47398
-0.047781 0.019302 -0.12564
-0.030942 -0.069536 -0.046861
0.084678 -0.37076 -0.026852
-0.030376 0.0096813 0.0075037
0.11211 -0.36274 -0.046437
-0.034755 -0.022056 -0.022994
-0.1086 -0.080289 -0.21712
-0.14071 -0.15079 -0.33185
-0.047163 -0.063366 -0.076772
0.012321 0.40221 0.29832
0.026365 0.046649 0.01095
-0.0019566 0.16904 0.12956
-0.11691 -0.20505 -0.31831
0.0058998 -0.051698 0.042455
0.0024984 0.60477 0.4207
0.010089 -0.22842 -0.20135
0.04357 0.53958 0.39716
0.017139 0.44172 0.30782
-0.098036 -0.055038 -0.28104
0.061447 -0.10521 0.020084
0.048613 0.30886 0.26466
0.029898 0.69319 0.56902
0.0088649 -0.17653 -0.17376
-0.063265 -0.1642 -0.28132
0.044176 0.63141 0.53502
-0.032049 -0.022378 -0.12059
0.081511 -0.31565 -0.086614
-0.09198 -0.25728 -0.30103
0.054592 -0.19444 0.048857
0.03094 0.2577 0.16675
0.07703 0.71371 0.5571
0.079417 -0.32575 -0.09779
-0.072645 -0.025074 -0.20762
0.046457 0.66003 0.50231
0.088935 -0.21887 0.0014959
-0.038306 -0.36292 -0.25926
0.058872 0.75628 0.64544
0.057317 0.52255 0.42343
0.023158 -0.21192 -0.13193
-0.0038525 -0.14137 -0.14127
-0.046843 0.10271 -0.067674
0.045118 0.54665 0.48804
0.097855 -0.16775 0.046978
-0.07628 -0.036331 -0.22281
0.068851 -0.44793 -0.19443
-0.0054785 0.061218 -0.016249
-0.014144 0.093396 0.050968
-0.098509 -0.13608 -0.23338
0.043724 0.17729 0.15105
-0.12172 -0.03249 -0.21934
-0.066306 0.056154 -0.036729
-0.13646 -0.11134 -0.29644
-0.027473 -0.051987 -0.13841
0.025978 -0.022697 -0.023852
-0.032292 -0.16923 -0.11662
-0.0044846 0.74836 0.53352
0.096201 -0.31377 -0.046956
0.059628 -0.08016 0.025526
0.08969 -0.35679 -0.089505
0.00083009 -0.0019292 -0.037836
-0.051352 0.17215 0.00070497
-0.077645 0.095038 -0.11449
0.10007 -0.41132 -0.047286
0.06135 0.56456 0.46949
0.024784 -0.075633 0.066033
0.040819 0.67548 0.59908
0.014524 -0.090726 -0.076256
-0.068027 -0.24087 -0.23973
-0.035703 -0.30795 -0.31996
0.029701 -0.1954 -0.14041
0.043256 0.24865 0.19827
0.03796 -0.22484 -0.0064684
0.084306 -0.43582 -0.15386
0.038945 -0.38924 -0.21782
0.045 -0.037901 0.089977
0.050158 -0.15058 0.068986
0.0063838 0.62186 0.46609
0.054371 -0.2578 0.0014629
-0.11443 -0.15455 -0.38094
-0.066589 0.023753 -0.16213
0.028395 0.71191 0.58166
0.084462 -0.19167 0.008707
0.039412 0.34798 0.24499
0.04339 -0.36136 -0.086712
0.012949 0.74641 0.54222
-0.047346 -0.1501 -0.23843
0.0021179 -0.28581 -0.2257
0.047801 0.75729 0.56905
-0.11888 -0.048947 -0.26517
-0.040497 -0.10693 -0.092021
-0.00036918 0.16704 0.084708
0.021067 -0.1973 -0.1265
0.043495 -0.30313 -0.047399
0.060535 -0.34642 -0.040692
-0.0077108 -0.061165 -0.10309
-0.024214 0.10339 -0.019712
-0.060318 0.222 -0.0082029
0.086321 -0.29511 -0.05517
-0.099769 -0.078085 -0.19709
0.022579 0.53734 0.41526
0.038514 -0.20852 0.0056507
0.0018358 -0.20634 -0.19171
0.023369 0.25791 0.22193
0.048574 -0.16759 -0.048809
0.034385 -0.18589 -0.090886
0.0090127 0.017711 0.067818
0.034706 -0.37894 -0.11675
0.00024907 0.055935 0.065122
0.057086 -0.067182 0.13952
0.035321 0.55178 0.40627
0.01666 0.0079043 -0.0055629
0.056802 0.65423 0.52014
0.047405 0.52755 0.38261
0.081958 -0.24263 -0.0078938
0.0060876 -0.24756 -0.19169
0.04488 -0.33229 -0.16713
-0.11195 -0.10789 -0.34572
0.04954 -0.27135 -0.013383
0.02075 -0.22705 -0.044082
0.057082 0.68686 0.59139
-0.097901 0.18675 -0.059084
0.044826 0.7728 0.62704
0.087362 -0.40579 -0.12728
0.027427 0.20764 0.12247
-0.084677 0.22391 -0.034736
0.028771 -0.42446 -0.26282
-0.073276 0.15592 0.011756
0.064731 -0.23844 -0.062456
-0.04465 0.095627 0.035233
-0.039593 -0.37319 -0.32501
0.095032 -0.1973 0.037039
0.086193 -0.27452 -0.066101
0.057012 0.6719 0.55839
0.019289 -0.27609 -0.08007
-0.004008 0.72083 0.49754
-0.022109 -0.029987 -0.0017693
-0.015744 -0.17556 -0.19675
-0.086534 0.026348 -0.099201
0.037953 -0.054059 -0.030853
-0.0039432 0.15854 0.11302
0.048987 -0.20655 -0.074101
0.01741 -0.44191 -0.25462
-0.021855 -0.24572 -0.24911
-0.089491 -0.17484 -0.34352
0.046376 -0.41744 -0.22114
-0.040599 0.054886 -0.08667
-0.024751 0.039163 0.0019305
0.06177 -0.42423 -0.19339
-0.054658 -0.3711 -0.29909
0.034404 -0.045974 0.10428
0.037814 0.63037 0.5163
-0.033899 0.1461 -0.011373
-0.057229 0.033328 -0.13605
0.047398 -0.43591 -0.12834
-0.019586 -0.37659 -0.32548
0.034348 -0.3353 -0.088205
0.046094 0.56668 0.49134
0.039274 0.60095 0.43761
-0.049453 -0.24021 -0.30335
0.013474 0.71675 0.54794
-0.066684 -0.32062 -0.36123
-0.022065 0.049598 0.055912
-0.0066354 0.10651 0.023534
0.053654 -0.27034 -0.10713
-0.032555 -0.12397 -0.19741
0.10194 -0.34649 -0.099068
0.034779 -0.1626 -0.11215
-0.029023 -0.2892 -0.29335
-0.015074 -0.40501 -0.23875
0.077823 -0.39501 -0.037013
0.094242 -0.46908 -0.093838
-0.065762 0.0072192 -0.17149
0.011327 -0.26388 -0.19164
0.020034 0.47186 0.32883
0.0072847 -0.048715 -0.055693
-0.041682 -0.060475 -0.17394
-0.020934 -0.021836 -0.10445
0.10716 -0.3823 -0.077509
0.027271 0.071655 0.030702
0.065372 -0.19816 0.067178
0.051669 -0.39951 -0.09494
-0.070075 0.17098 -0.070616
0.031612 0.59096 0.47723
0.046102 0.67101 0.47883
0.005532 -0.17134 -0.038634
-0.080233 0.2301 -0.016314
0.07113 0.74066 0.60823
-0.013326 -0.422 -0.2779
0.034826 0.35817 0.30022
0.082742 -0.17697 0.080662
-0.021179 -0.32359 -0.29996
-0.13926 -0.21584 -0.37462
0.0095623 -0.16974 -0.13215
0.020211 -0.10702 -0.10671
0.0097562 0.0066933 -0.047912
-0.023932 0.032872 0.040765
-0.0047921 -0.21846 -0.21141
-0.080031 -0.13669 -0.29806
0.0050393 0.63587 0.45111
0.040482 -0.15403 -0.056696
-0.10806 0.13156 -0.083453
-0.0015393 0.18548 0.13837
0.012018 -0.38063 -0.26856
-0.076756 0.11385 -0.019933
-0.099145 0.2118 -0.036996
0.0027936 0.61298 0.43546
0.015433 -0.38173 -0.15907
0.01964 -0.1276 -0.12364
0.048695 0.61782 0.54822
0.016178 -0.22026 -0.15218
0.053292 -0.12556 -0.010697
0.049533 -0.078988 -0.01219
0.026618 -0.37127 -0.23163
-0.0034917 -0.23125 -0.097789
0.014059 0.72839 0.53231
-0.075791 -0.26391 -0.37455
-0.053485 0.00205 -0.046131
0.020969 0.50485 0.39401
-0.059799 0.057215 -0.12541
0.076997 0.71866 0.61473
0.041304 0.37587 0.26566
-0.10777 -0.031937 -0.1829
0.0085165 -0.26978 -0.098447
0.056437 -0.47837 -0.13787
0.015033 0.68306 0.50403
0.090028 -0.26575 -0.027683
0.063194 0.61558 0.51513
0.048891 0.48082 0.36138
-0.018309 -0.28441 -0.16458
0.027189 -0.25023 -0.17758
-0.077468 0.19725 0.0074403
-0.065101 -0.25281 -0.34466
0.0099655 -0.33605 -0.13989
-0.10666 -0.21623 -0.30429
0.010225 0.58266 0.40661
-0.046208 -0.1292 -0.22202
0.079119 -0.26845 -0.084262
0.076819 0.76174 0.63433
0.03135 0.14812 0.090465
0.083995 -0.15618 0.10239
0.033822 0.64635 0.46521
-0.10163 -0.049344 -0.18171
0.088793 -0.15165 0.046322
0.037398 0.49721 0.34276
-0.01837 0.016331 0.041338
-0.088507 0.060284 -0.080563
0.087285 -0.11572 0.067271
0.038873 0.75175 0.60041
0.04274 0.42014 0.29957
0.049683 -0.25273 -0.10364
0.082373 -0.41902 -0.14664
0.028501 0.68964 0.53695
0.04173 0.099954 0.10496
-0.072027 0.031489 -0.065295
0.0010516 0.65696 0.47781
-0.043944 -0.39061 -0.28969
0.018908 -0.34814 -0.23229
-0.01627 -0.26412 -0.24974
-0.0046787 0.075326 0.067623
0.042626 -0.16307 0.044794
0.050785 -0.045507 0.030223
0.027357 0.59734 0.42013
0.038137 0.014079 0.051229
-0.096745 -0.19863 -0.37472
0.022846 0.7462 0.56304
-0.11846 -0.073874 -0.31157
0.0095677 0.6434 0.46581
0.096341 -0.4436 -0.13382
-0.0057327 -0.12993 -0.034481
-0.13472 -0.13521 -0.30881
0.01643 0.032525 0.018042
0.027154 -0.25489 -0.049322
0.022328 -0.091873 -0.091838
-0.0075065 -0.34746 -0.18423
-0.1023 -0.26914 -0.33066
0.05118 0.36376 0.30551
-0.0086235 -0.32409 -0.17088
-0.078491 -0.11103 -0.2776
0.11726 -0.40684 -0.055996
0.027554 0.59931 0.49166
-0.066646 -0.19898 -0.20871
-0.045949 0.1392 -0.0413
-0.0013414 -0.14008 -0.16884
-0.092138 0.11215 -0.053366
-0.025208 5.9897e-05 -0.091164
0.034601 0.65855 0.55905
0.025164 -0.099021 0.05113
-0.013218 -0.099133 -0.029521
0.10811 -0.34023 -0.074893
0.0302 0.67109 0.54426
0.015348 -0.017758 -0.055095
0.01832 0.481 0.36678
-0.10808 -0.17978 -0.38586
0.097002 -0.075898 0.13515
-0.065451 -0.041074 -0.1002
0.056542 0.5384 0.45362
0.031924 0.46709 0.31494
0.011077 0.078148 0.10163
0.10886 -0.34432 -0.040883
-0.13387 -0.12101 -0.34861
0.032703 0.33316 0.22223
-0.042849 -0.032414 -0.15684
0.063444 -0.0516 0.12638
0.051369 0.29353 0.25009
-0.096472 -0.30642 -0.34345
-0.097828 0.0015108 -0.1699
0.051415 0.34033 0.27749
0.087312 -0.33943 -0.02564
0.019987 0.39233 0.25588
0.042461 0.69821 0.572
-0.00099903 -0.028412 -0.059454
-0.13223 -0.21031 -0.354
-0.15015 -0.1148 -0.32749
0.049789 -0.13621 -0.032756
0.037693 0.64749 0.52751
0.075488 -0.15521 0.0084394
-0.12932 -0.17205 -0.32219
-0.0095329 -0.22877 -0.21187
-0.12593 -0.24111 -0.36144
-0.031888 0.092241 -0.043306
-0.003678 -0.44312 -0.25217
0.022136 -0.26278 -0.065158
-0.10493 0.10393 -0.085736
-0.019606 -0.12149 -0.057941
-0.10257 -0.11402 -0.22709
-0.11282 -0.23503 -0.32985
0.030375 -0.1921 -0.11103
-0.058618 0.17293 -0.045254
-0.010145 -0.38326 -0.2138
0.062563 -0.46778 -0.1179
0.095899 -0.33093 -0.094257
0.060572 -0.38828 -0.17177
-0.007789 0.63636 0.43414
-0.046842 -0.18305 -0.2595
0.022561 0.64724 0.49601
0.023324 0.57444 0.47582
-0.012583 -0.15952 -0.068724
0.040419 -0.47594 -0.16986
0.019581 -0.14768 -0.13508
0.045586 0.59995 0.5126
0.021093 0.76972 0.56107
0.028948 0.65612 0.51539
0.029909 -0.032816 0.0024762
0.080707 -0.19036 0.064277
0.034294 -0.23797 -0.12603
0.035503 0.11767 0.10293
0.050162 0.54969 0.43379
-0.078542 -0.28742 -0.29305
-0.14976 -0.14798 -0.34895
0.028318 -0.20067 -0.010489
-0.01831 -0.13958 -0.17644
0.013081 -0.2087 -0.15848
-0.089491 0.12692 -0.037895
0.06168 -0.22044 0.029301
0.033668 0.3438 0.28928
0.046689 -0.19505 0.031856
0.041236 0.73669 0.53912
0.10077 -0.47616 -0.11285
0.020586 -0.34288 -0.12218
0.10615 -0.41794 -0.10354
0.0091613 0.22858 0.12625
0.017668 -0.049226 -0.034238
-0.11511 -0.27181 -0.37321
0.0036509 0.67621 0.50602
0.05833 0.67558 0.53767
-0.066536 -0.10697 -0.14672
-0.094746 -0.014854 -0.20531
0.023227 0.52775 0.37553
0.020787 0.57001 0.44045
0.079401 -0.19544 -0.010353
0.047571 0.64239 0.57216
0.062372 -0.36149 -0.15001
-0.051985 -0.088716 -0.20697
-0.0091651 0.091179 0.068708
-0.086308 -0.33621 -0.3421
0.038319 0.12187 0.086452
0.051786 -0.023547 0.054623
0.033026 -0.22574 -0.12049
-0.06154 0.082444 -0.0090753
0.080346 -0.092454 0.060766
0.057436 -0.038464 0.056472
0.019566 -0.046498 0.074635
0.048351 0.52625 0.43748
0.022288 -0.43537 -0.1807
0.024719 0.61606 0.51005
0.02877 0.36075 0.24232
0.060478 0.61284 0.50007
-0.054108 -0.30751 -0.3583
0.073391 0.71785 0.6499
0.0083533 0.12785 0.049008
-0.014497 -0.2526 -0.13523
-0.047551 -0.2511 -0.20361
0.0094814 0.062267 0.088549
0.023127 -0.047979 -0.061467
-0.010188 -0.020108 -0.07317
-0.094743 -0.29289 -0.37082
0.023528 -0.29402 -0.18626
0.024024 -0.17262 -0.00066779
0.057927 0.49737 0.3938
0.05619 -0.13825 0.089927
-7.1486e-05 0.63176 0.46477
-0.12104 -0.052916 -0.22485
-0.052109 -0.18884 -0.27444
-0.12297 -0.094253 -0.25665
-0.039099 0.11478 0.0093069
0.069061 -0.30411 -0.018589
-0.028842 0.02002 -0.085393
-0.061289 -0.12828 -0.15
0.010011 0.040738 -0.02496
-0.023611 -0.42475 -0.26992
0.04252 0.45249 0.37186
-0.069035 -0.052751 -0.21862
0.029958 -0.0029848 0.011044
0.094195 -0.094867 0.13703
-0.040196 0.083909 -0.066341
-0.057017 -0.052342 -0.19312
0.10853 -0.37181 -0.060043
0.0031295 0.2675 0.18465
-0.077967 0.083356 -0.042947
-0.089266 -0.28701 -0.31529
0.10369 -0.14115 0.077074
-0.00055219 -0.076021 -0.090475
0.076707 -0.30097 -0.086844
-0.05364 0.13695 -0.058956
0.039363 -0.3701 -0.20409
0.052352 0.40938 0.3409
0.055709 -0.38299 -0.07537
-0.07123 -0.025592 -0.10194
0.059445 -0.32874 -0.031109
-0.044678 -0.052137 -0.064018
-0.013423 0.050794 0.074857
-0.095594 -0.072475 -0.28762
-0.033546 0.046255 0.0254
0.024251 -0.021342 -0.040816
-0.069006 -0.014174 -0.19266
-0.09419 0.011658 -0.12513
-0.064229 -0.10667 -0.24473
-0.095354 0.043026 -0.10652
0.0091973 -0.0032592 0.044784
-0.054028 -0.32235 -0.26504
0.044945 0.2245 0.18722
-0.0091413 -0.033493 -0.087516
0.031985 0.034832 0.060927
0.037654 -0.43237 -0.14642
-0.076119 0.14616 -0.096536
0.056352 0.69322 0.5736
0.0076779 0.32706 0.22574
0.0010849 0.0040808 0.069791
0.05658 -0.47715 -0.19608
-0.0053769 -0.20455 -0.20696
-0.073215 -0.082033 -0.14399
0.0082649 0.73698 0.55422
-0.041438 0.17067 -0.010708
0.010733 -0.35618 -0.15179
0.023106 0.28572 0.18152
0.034937 0.57977 0.50277
-0.018721 0.10845 -0.0047847
0.060889 0.72074 0.62582
0.026862 -0.24956 -0.14942
-0.00058298 0.20983 0.13553
0.046398 0.43758 0.32768
0.034262 -0.071326 0.08882
0.01681 -0.40874 -0.27738
-0.068924 -0.14897 -0.28298
0.085481 -0.4677 -0.17279
0.017704 0.15781 0.091712
0.033428 0.21394 0.15103
-0.098663 -0.099771 -0.31238
0.028051 0.61952 0.43648
-0.13089 -0.10642 -0.28144
0.058582 0.7695 0.63594
0.020815 -0.3566 -0.13091
-0.083756 -0.038711 -0.13704
0.016981 -0.077636 -0.054752
-0.006199 -0.0025741 0.010751
-0.0020989 -0.095414 -0.11549
-0.029869 0.044921 -0.070833
-0.078315 -0.22603 -0.35442
-0.033809 -0.39571 -0.30432
-0.024564 -0.3539 -0.22436
-0.050759 -0.32328 -0.36185
-0.1366 -0.068583 -0.26803
0.024894 -0.09743 -0.051426
0.036997 -0.45148 -0.16063
0.058204 0.6142 0.56076
0.059738 0.77824 0.60954
0.057518 0.43695 0.35496
0.073481 -0.25418 -0.059013
-0.072303 -0.33974 -0.31508
-0.098993 -0.20936 -0.38664
-0.020909 0.07938 0.03644
-0.060195 -0.076204 -0.11275
0.0058506 -0.17767 -0.14527
0.046105 0.30847 0.24564
0.0040163 -0.21659 -0.18281
0.031991 0.78176 0.58204
0.01019 0.029124 0.0026578
-0.09691 -0.23008 -0.29312
-0.035429 -0.17975 -0.13027
-0.063572 -0.30994 -0.27674
0.0363 -0.17286 -0.078118
0.040412 0.34534 0.26102
-0.062103 -0.22489 -0.31962
0.039999 -0.10899 -0.027478
0.04994 0.58315 0.50195
0.034806 -0.43891 -0.2594
0.081185 -0.16546 0.021079
-0.038101 -0.32588 -0.33703
0.031056 0.5187 0.41655
0.021837 0.31428 0.19891
0.016655 0.071302 0.044543
0.0032151 -0.029755 0.05155
-0.012122 -0.30652 -0.16644
-0.0060298 0.070699 -0.0034835
-0.01725 0.064404 0.0085219
0.037333 0.63944 0.54634
0.10257 -0.37022 -0.036195
0.056067 -0.091699 0.12092
0.023821 -0.34262 -0.21827
-0.059018 0.15975 0.0050115
-0.039746 -0.076152 -0.17284
-0.032247 -0.14133 -0.097795
-0.059597 -0.28675 -0.35589
0.031965 0.27843 0.19282
-0.10217 0.022522 -0.13999
-0.015134 -0.028956 0.013566
-0.057234 -0.14346 -0.15168
0.061923 0.68529 0.55173
-0.040623 -0.1669 -0.2356
-0.14089 -0.18303 -0.35386
-0.10276 0.0092053 -0.15456
-0.014928 -0.31667 -0.2822
-0.038161 -0.036245 -0.039669
-0.037896 -0.2504 -0.28593
0.10385 -0.47977 -0.12909
0.0097814 -0.30937 -0.12236
0.034596 0.28725 0.24827
0.035008 -0.15839 0.03194
0.10665 -0.39703 -0.09534
-0.11164 -0.18149 -0.29142
-0.015134 0.61265 0.42112
0.05164 0.77161 0.5881
-0.072746 -0.33449 -0.3497
-0.12293 -0.13024 -0.36278
-0.077873 -0.047489 -0.23364
-0.0709 -0.070388 -0.23438
0.036066 0.71357 0.51051
0.068544 -0.48569 -0.1693
0.082752 -0.37342 -0.11523
0.018906 -0.40925 -0.17026
0.0027822 -0.19489 -0.16327
-0.030901 -0.083115 -0.055891
0.065179 -0.055474 0.05375
0.010292 0.25999 0.21264
0.032785 0.54819 0.47401
0.00013406 0.1379 0.11656
0.026383 -0.40028 -0.2516
0.065848 0.71483 0.58376
0.053647 0.60509 0.47771
-0.045873 0.050514 0.0023812
0.040302 -0.1376 -0.078886
0.025009 -0.047111 -0.017408
-0.096366 -0.19246 -0.26672
-0.098376 -0.22393 -0.39209
-0.026743 -0.16568 -0.10258
-0.017732 0.019031 0.0033055
-0.0053013 -0.16001 -0.15682
-0.0024511 -0.047061 0.028037
0.022785 -0.22928 -0.14437
-0.14918 -0.17466 -0.36691
0.045923 -0.11741 0.082362
-0.10643 -0.15792 -0.26467
-0.036778 -0.1849 -0.23961
-0.013246 -0.20396 -0.099946
-0.059585 0.020877 -0.046298
0.097162 -0.32737 -0.054067
0.052314 0.57738 0.45913
-0.076686 -0.20238 -0.33512
0.04202 -0.3046 -0.15455
-0.010137 0.70414 0.48892
0.017709 -0.088981 0.042219
0.032027 -0.094926 -0.034771
0.018586 -0.11927 -0.086888
0.091353 -0.44111 -0.06022
0.08195 -0.35291 -0.023587
-0.064909 -0.023452 -0.087234
0.018355 0.69515 0.52589
0.072786 -0.091392 0.14773
0.010327 -0.42582 -0.19939
0.053263 -0.24218 -0.089038
0.061093 -0.16488 -0.028268
0.019032 0.17712 0.1007
0.054722 0.74715 0.57814
-0.016388 -0.15287 -0.18171
-0.055585 -0.26464 -0.33262
-0.017975 -0.22956 -0.12706
-0.023958 -0.17852 -0.20841
-0.013576 -0.20871 -0.22024
0.090106 -0.29133 -0.082267
0.037893 -0.070454 -0.042794
-0.1228 -0.14982 -0.2936
0.019814 -0.30423 -0.097857
-0.072261 0.20129 -0.054856
-0.07314 0.22029 -0.04395
0.043281 -0.099953 0.088537
0.032912 0.08313 0.075962
-0.09192 0.047922 -0.12622
-0.026853 -0.063944 -0.034525
0.0097862 0.20833 0.17616
0.092978 -0.086089 0.091556
-0.1497 -0.1009 -0.31724
0.020764 -0.13368 -0.091988
-0.02495 0.078273 0.069104
0.014294 -0.18434 -0.13202
-0.035297 -0.27617 -0.29777
-0.012237 0.051593 -0.02934
-0.077747 -0.20644 -0.23702
-0.13046 -0.053242 -0.24484
-0.019616 -0.35409 -0.31716
0.038918 0.18713 0.13312
0.032037 0.099575 0.075577
-0.045158 -0.1438 -0.12656
-0.040471 0.0093374 -0.11698
0.027561 0.58786 0.46665
0.059846 -0.3247 -0.13061
-0.011924 -0.053639 0.0037341
-0.14308 -0.073068 -0.28466
0.04047 0.57329 0.40213
-0.00062209 -0.016339 -0.050558
0.044369 0.7765 0.57474
-0.13999 -0.13891 -0.32235
0.018007 -0.010938 0.064814
0.050924 -0.10912 -0.0046292
0.054409 -0.4267 -0.2105
0.064014 -0.15978 -0.011159
0.10303 -0.15601 0.073281
0.011787 0.72029 0.52204
0.032495 -0.0051768 0.026458
0.026183 -0.17196 -0.098752
0.079896 -0.23168 -0.03677
-0.105 -0.28447 -0.34662
0.055061 0.48847 0.37265
0.052225 0.23671 0.19895
0.10988 -0.10925 0.11904
0.017538 -0.071266 0.053752
-0.051628 0.16202 -0.037905
-0.097171 0.063737 -0.11384
0.073654 -0.21205 -0.033567
0.01701 0.64236 0.48109
-0.055151 -0.1416 -0.24912
0.027193 0.072418 0.067415
0.033448 0.47936 0.38734
0.048002 0.53955 0.47152
0.033226 0.60302 0.51905
0.036231 -0.087148 0.082333
0.046565 0.33588 0.24973
0.070218 -0.40113 -0.057091
0.049927 -0.44134 -0.22973
-0.077511 -0.1285 -0.18421
-0.020798 0.052545 0.018993
-0.054637 0.060985 -0.11205
0.038676 0.44062 0.30516
0.033552 -0.34863 -0.098822
-0.0090004 -0.37211 -0.20391
-0.07338 0.12774 -0.0035225
-0.088011 -0.13892 -0.21324
-0.057393 -0.021285 -0.070001
-0.065354 -0.028359 -0.19452
0.018747 -0.24947 -0.16639
-0.068686 -0.14725 -0.17826
0.085573 -0.39217 -0.1219
-0.018721 -0.13677 -0.066338
0.015521 0.1394 0.054718
0.01518 -0.16226 -0.11534
-0.10474 0.076779 -0.10356
0.0057518 -0.39177 -0.2892
0.032237 0.76848 0.59772
-0.024151 -0.12921 -0.18328
-0.13338 -0.16707 -0.37386
0.017493 0.1947 0.096968
-0.13613 -0.081915 -0.30657
0.048463 0.73541 0.60958
0.032033 0.68799 0.55578
-0.069558 0.060712 -0.13329
-0.00918 -0.383 -0.31466
-0.0039323 -0.26003 -0.22109
0.083959 0.74619 0.63888
0.027059 0.41985 0.27991
-0.0078386 0.75606 0.51402
0.075383 -0.43292 -0.067589
0.011191 -0.13351 -0.0013579
0.014628 0.75747 0.55097
0.054946 -0.068848 0.023289
0.09508 -0.316 -0.029839
-0.010122 -0.42644 -0.24274
-0.051035 0.091261 0.018898
-0.10551 -0.064981 -0.20034
0.098752 -0.32796 -0.083028
-0.085434 0.16978 -0.00060868
-0.016869 -0.015556 0.018917
-0.010956 -0.13316 -0.047612
-0.11338 -0.1413 -0.37115
-0.02252 -0.051246 -0.11996
-0.077738 -0.15648 -0.20346
-0.1114 -0.033209 -0.23581
0.016109 -0.12494 0.014722
0.084041 -0.056056 0.10052
0.020034 0.34077 0.21424
0.014661 -0.28197 -0.093728
-0.10566 0.17345 -0.040601
0.017071 0.053786 0.021913
-0.046929 -0.20882 -0.17392
-0.057567 -0.11807 -0.23839
0.019517 0.058657 0.0066251
-0.020473 -0.044573 -0.0081274
0.024434 0.58273 0.40419
-0.013495 -0.13217 -0.15534
-0.015392 0.64872 0.43559
0.075025 -0.070805 0.071688
0.051076 -0.33307 -0.051587
0.021715 0.65629 0.45305
-0.083161 -0.080636 -0.26699
0.055258 0.38947 0.31897
-0.0075572 -0.18 -0.17498
-0.010767 -0.11221 -0.13621
0.041028 -0.22456 -0.10289
0.012937 -0.22995 -0.16549
-0.088724 -0.20015 -0.3589
0.032421 -0.052398 -0.0053958
0.057771 -0.049457 0.042237
0.055286 -0.39603 -0.18807
0.0030836 0.096584 0.021062
-0.067189 -0.29621 -0.27512
0.0075693 0.64946 0.48635
0.011667 -0.027601 -0.03232
0.057345 -0.49165 -0.15428
-0.096316 0.069164 -0.090995
-0.073881 -0.15286 -0.29599
0.039988 0.16455 0.11912
-0.059099 -0.20527 -0.30015
0.040996 0.61669 0.44747
0.040201 0.61727 0.51262
-0.021439 0.021812 -0.06865
0.051761 -0.29393 -0.023878
0.008316 0.32003 0.2134
-0.099839 -0.30742 -0.36125
-0.051516 -0.18733 -0.16913
0.065271 -0.35117 -0.13699
-0.024986 -0.098266 -0.1567
0.11315 -0.47014 -0.11635
0.011614 -0.0012087 -0.014714
-0.049696 -0.25693 -0.31508
-0.021326 0.012088 0.028118
0.079041 -0.26873 -0.052748
0.041825 0.27844 0.21398
-0.10089 0.15954 -0.039939
0.039465 0.66525 0.49114
-0.10165 -0.032063 -0.17014
-0.035624 -0.33885 -0.23748
-0.0811 -0.29448 -0.37427
-0.016203 -0.095602 -0.13648
-0.045597 -0.22776 -0.18384
0.030546 0.10996 0.063087
0.011747 0.66781 0.48681
-0.0072415 -0.19474 -0.19177
0.040822 -0.25841 -0.022996
-0.095295 -0.050379 -0.1691
-0.022436 -0.15614 -0.1902
-0.037841 -0.35415 -0.34203
0.070522 -0.24219 0.00035163
0.052335 -0.10195 0.1062
0.0027435 -0.11279 -0.10824
-0.11726 -0.066428 -0.22599
-0.026645 -0.30953 -0.19895
0.01268 -0.1372 -0.10376
0.045376 -0.34443 -0.17423
-0.065683 -0.23604 -0.33463
0.045099 0.61065 0.42915
-0.028004 -0.10038 -0.061401
0.046455 0.18839 0.17103
-0.037346 -0.11162 -0.19161
-0.088395 -0.15763 -0.32967
0.029433 -0.32133 -0.1922
-0.0080802 -0.053655 -0.091264
0.018358 -0.19532 -0.027805
0.049173 0.46451 0.35132
0.026397 0.45947 0.36803
-0.031802 -0.38608 -0.31427
0.018095 0.36742 0.23619
0.022235 -0.38592 -0.14761
0.011814 -0.1029 -0.090118
-0.018565 0.055229 -0.047742
-0.01815 -0.11079 -0.15831
0.079738 -0.18413 -0.002052
0.07395 -0.13673 0.025172
-0.033634 -0.40542 -0.2943
-0.039557 -0.12939 -0.20818
-0.098965 -0.16582 -0.35736
0.083138 -0.21403 0.018418
0.038051 -0.127 0.059403
-0.038034 0.15732 -0.0042128
-0.013161 0.056878 0.037775
0.021784 0.35948 0.29342
-0.013837 0.027495 0.054183
-0.018171 0.11341 0.049016
-0.0067841 0.013432 -0.051068
0.033884 -0.46278 -0.17475
0.083451 -0.38511 -0.028713
-0.086418 -0.12788 -0.20249
-0.084487 -0.2059 -0.25081
-0.0058527 -0.010431 -0.065131
0.050884 -0.18069 -0.052759
0.082892 -0.24937 -0.039226
-0.0032189 0.16672 0.098288
-0.075569 -0.0010396 -0.094567
0.023471 0.26784 0.15953
-0.073686 0.22181 -0.0045143
0.015021 -0.36983 -0.15196
-0.059669 0.056366 -0.022652
-0.10948 -0.041146 -0.25861
0.09625 -0.14746 0.057228
-0.10592 -0.095672 -0.32487
-0.088119 -0.13791 -0.31585
0.066862 -0.27291 -0.081118
0.0069768 0.012321 -0.015367
0.083031 -0.47971 -0.18091
-0.073486 -0.19333 -0.32233
0.040755 -0.20402 -0.08968
-0.10015 -0.26034 -0.32024
0.020347 -0.08851 -0.062544
0.056765 0.5613 0.48208
0.049322 0.69985 0.50772
0.064804 -0.11861 0.018138
-0.030222 0.061103 0.04651
0.043645 -0.14067 0.061969
0.052253 0.74418 0.52675
0.041476 -0.38735 -0.10818
-0.095777 -0.025954 -0.15371
0.0044785 0.054781 0.097386
0.044554 -0.46439 -0.22022
0.036775 0.6626 0.53567
-0.033112 0.023106 0.010773
-0.042281 -0.022587 -0.14492
0.026353 -0.11487 0.042983
0.037063 0.58787 0.43415
-0.0045489 -0.30967 -0.15266
0.099521 -0.43663 -0.12246
0.09437 -0.17974 0.039174
0.031463 0.62649 0.50078
0.014894 -0.2045 -0.14429
0.013321 0.41566 0.30063
0.01958 0.24844 0.15708
0.018726 -0.37899 -0.25339
0.035233 -0.3569 -0.2039
0.041684 0.50863 0.36539
-0.1434 -0.10279 -0.30526
0.0026565 0.11951 0.10688
0.039509 0.58487 0.48972
-0.058272 -0.20051 -0.19216
0.048104 0.40869 0.31673
-0.027154 -0.37089 -0.2412
0.076275 -0.12125 0.040449
-0.056909 -0.0044056 -0.057653
0.038029 -0.3222 -0.17474
0.082802 -0.23143 -0.00016055
-0.060423 -0.14488 -0.26239
0.022665 0.73898 0.52795
0.055277 -0.41259 -0.096149
0.060415 -0.46105 -0.22095
0.10592 -0.13255 0.09509
0.1065 -0.44441 -0.11303
-0.088051 -0.27366 -0.382
0.025915 0.20113 0.18213
0.016765 -0.32256 -0.21962
-0.10198 -0.12018 -0.33304
-0.099395 0.10259 -0.10002
-0.0082618 0.035745 -0.039191
0.035783 0.57205 0.48524
-0.071221 0.20775 0.0015681
-0.052662 0.04947 -0.012572
-0.06863 -0.0010724 -0.18308
-0.11123 -0.16417 -0.27893
0.019042 0.0097112 0.0082104
-0.023214 0.040178 -0.060047
0.0050937 -0.071992 0.02714
-0.0057 -0.034297 -0.073273
0.048391 0.50772 0.41391
-0.016635 0.10156 0.040501
0.092032 -0.1782 0.070936
0.09527 -0.48163 -0.16053
0.054964 -0.31123 -0.13182
-0.0011753 -0.25345 -0.10783
-0.095022 0.22344 -0.026121
0.01934 -0.46636 -0.20769
-0.14396 -0.1363 -0.35233
-0.032258 -0.064892 -0.15712
0.030578 0.41091 0.26978
0.0025572 0.17083 0.14209
0.047948 -0.17825 0.045776
0.059295 -0.37547 -0.062794
-0.076001 -0.091994 -0.15653
-0.05026 -0.30665 -0.24659
-0.001987 0.057554 -0.0038204
0.032513 0.012897 0.03863
-0.07517 -0.11911 -0.17299
0.04355 -0.0065353 0.054184
0.024449 -0.18506 -0.15036
0.070541 0.75589 0.61722
0.091133 -0.13358 0.1164
-0.0081589 -0.18923 -0.079383
0.02578 -0.042867 0.090117
0.043181 0.55958 0.48046
0.10513 -0.44603 -0.075061
0.064951 -0.076118 0.04697
-0.071973 0.069266 -0.039823
-0.017326 -0.427 -0.25824
-0.040984 -0.079952 -0.18555
0.0057026 -0.058591 -0.073202
-0.099834 0.14305 -0.08297
0.015134 0.084779 0.050398
0.042236 0.27525 0.20107
-0.079437 -0.3404 -0.3305
-0.10427 -0.092848 -0.21646
-0.078417 -0.21957 -0.24724
-0.028512 -0.04894 -0.027934
0.048513 -0.225 0.015581
0.012451 -0.34688 -0.245
0.037679 0.032466 0.047957
0.030842 -0.01994 0.0055196
-0.039907 -0.21256 -0.26475
0.039264 -0.34867 -0.086858
-0.043356 -0.34309 -0.25656
-0.039463 0.038023 -0.095606
0.046188 0.28646 0.22982
0.00032221 -0.22995 -0.19197
-0.0034379 -0.12103 -0.12675
0.029891 0.56159 0.45391
-0.079025 0.025681 -0.15546
0.026435 -0.14397 0.02362
0.050717 0.7859 0.60178
0.009356 -0.31757 -0.23183
-0.014205 0.087166 -0.013705
0.028295 -0.14221 -0.081904
-0.020904 -0.3274 -0.19889
0.019309 0.68622 0.51526
0.041017 -0.11993 0.070377
-0.0082208 -0.16638 -0.18964
-0.033013 -0.27182 -0.187
-0.046941 0.045572 -0.10624
-0.1052 0.119 -0.076192
-0.13935 -0.20588 -0.36598
0.041429 0.57047 0.4219
0.093102 -0.46195 -0.082853
0.029181 0.15246 0.10376
0.03641 -0.13608 -0.053194
0.071241 -0.37848 -0.1428
0.10496 -0.40999 -0.093164
-0.061894 -0.25801 -0.23836
0.071006 -0.12406 0.13056
-0.11489 -0.27388 -0.36026
0.019523 0.43619 0.29471
-0.0042807 0.13758 0.10409
0.00059108 0.070694 0.010413
-0.045943 -0.14084 -0.22927
0.037951 0.54531 0.37644
0.0015484 0.61363 0.46002
0.0066134 -0.015841 -0.035034
0.011279 -0.3267 -0.13086
-0.075688 0.016806 -0.16884
-0.0016675 -0.12543 -0.022923
-0.088391 0.13807 -0.092717
-0.058515 0.087364 -0.10248
-0.062218 -0.24168 -0.22808
0.0058974 -0.39685 -0.18925
-0.10806 -0.14155 -0.2571
-0.025823 -0.24693 -0.1552
-0.018927 -0.3026 -0.28115
0.0053804 -0.21848 -0.070591
-0.070399 -0.35193 -0.31926
0.087262 -0.12585 0.052866
-0.061826 0.049031 -0.13516
-0.070972 0.23531 -0.0041792
0.00871 0.039075 -0.010741
-0.064297 -0.27263 -0.25322
-0.069324 -0.11783 -0.15986
0.046462 -0.15809 0.056186
0.050203 0.32338 0.25167
-0.045735 -0.35307 -0.26825
0.038216 0.3042 0.21097
-0.040029 0.042271 0.013281
0.059652 0.66219 0.5103
-0.11095 0.18908 -0.041207
0.058738 -0.48372 -0.18034
0.033786 -0.41143 -0.24354
0.024898 -0.065719 -0.037689
0.015352 -0.25546 -0.17754
0.023733 0.15167 0.078053
-0.063285 0.097096 -0.0029019
-0.042105 -0.28732 -0.21649
0.062785 0.73102 0.6367
-0.069094 0.015828 -0.06965
0.081927 -0.33818 -0.093309
0.078301 -0.42619 -0.16
0.046721 -0.44589 -0.13646
0.048692 -0.30164 -0.035491
0.06759 -0.16455 0.096206
0.051725 0.61872 0.48564
0.0015534 -0.10887 -0.0050448
0.061204 -0.44007 -0.10215
-0.10752 -0.015835 -0.19174
0.021622 -0.28158 -0.18192
0.040254 0.21158 0.16712
0.00028332 -0.30097 -0.23973
0.017574 -0.032713 0.079708
0.04546 -0.019572 0.044013
0.0058226 0.75583 0.52829
0.021201 0.77576 0.57491
-0.0028596 0.017641 0.072612
-0.036072 -0.15626 -0.2189
-0.12768 -0.13608 -0.29462
-0.083381 0.10482 -0.10855
-0.037802 -0.28258 -0.20427
0.010385 0.23751 0.1971
-0.11049 -0.089009 -0.22694
-0.085454 -0.1699 -0.33173
-0.022364 0.069886 -0.045878
-0.066012 0.029051 -0.054305
0.028496 -0.24004 -0.1396
-0.12459 -0.086613 -0.32289
-0.09062 -0.14556 -0.32623
-0.029273 -0.034593 -0.12296
0.0079812 -0.19073 -0.17315
-0.06403 0.12425 -0.089296
-0.080578 0.058014 -0.065441
-0.05985 0.11711 0.012539
0.075941 -0.061105 0.08012
-0.083132 -0.32009 -0.32462
0.031183 -0.012218 -0.018865
-0.0071073 -0.011234 0.042312
-0.049762 -0.040936 -0.067172
0.091375 -0.43226 -0.13663
0.015643 -0.27993 -0.19336
0.0071033 -0.35578 -0.2622
0.0099285 0.68216 0.49254
0.044913 0.66839 0.55689
