-0.031278581014083 0.92256120814268 -0.264379771865112
0.0224101542320225 -0.0982830429957661 -0.0962763190324644
0.0107737533652962 -0.20973197684869 -0.08648644738287
0.0233069684714409 0.346448474808614 -0.0397543993496385
-0.109338654385735 -0.195007694728713 -0.0603335040628267
0.145800964745908 -0.724719709520854 -0.0484784326496753
0.130636310005395 0.144325701556288 0.0732101681203278
-0.084380984921151 -0.202631907227373 -0.0638673489479151
-0.0672391444249757 -0.0302270367191562 0.139961686530985
0.289115847635343 0.152868519762345 0.0410033189311205
-0.233394506877036 0.159679038168957 0.124276263915557
0.0783604850345311 0.428927833935728 0.0388535298434025
-0.299847761937904 0.0110249208998192 -0.0139175792423366
-0.166950940278424 0.294160162144838 0.100892455140262
0.136710245096728 -0.129246248789238 -0.0419457062224553
-0.131508766301087 0.0148040047865972 0.0344767498982182
0.0730962515179683 -0.545910530358587 0.021952321440845
0.0579257682188575 0.610966185578785 0.0447723709243788
0.266087681799118 0.241541365965863 0.0531199213173744
-0.131433568155929 0.318590245294412 0.0756770044043117
-0.116577549767738 -0.02007224487037 -0.0156733631594724
-0.0840584671093874 -0.646112418416768 -0.039161202780333
0.132378477177481 -0.640955905192425 0.000155226598874963
-0.376577408933046 -0.0645038478591988 -0.0477609733207626
0.0837475051980672 -0.164014187605171 -0.0973641580856962
-0.134576983130988 -0.381806282256366 0.030233019795718
0.279039406881418 0.0257729321165849 -0.0876257111037501
-0.0617180815094988 0.150873357930745 0.137158664529054
0.0251551312152641 0.447498079300986 0.138116307419091
-0.0850046083729182 0.790840581574562 -0.212012800206058
-0.0248272285847767 0.430767794321961 0.074459442327101
0.110011316488795 0.499306123752143 0.160029398277553
0.0729783967866101 0.200801910931536 0.132442483142267
0.0145765036383672 -0.0421519494157594 -0.0888066984337291
0.196398503459417 0.297054966331971 -0.0280095468229339
-0.166947884137652 -0.211544469512864 0.0519194603536604
0.0770573059858649 -0.671215091432391 -0.0147756831551552
0.131842007411823 0.0808380297808242 0.0507458793424684
-0.0713645365465946 -0.349632514483714 0.0368093230222061
0.144247631467117 -0.657054086291036 -0.0462507907023883
0.123376248729932 -0.630493113636867 0.0089518950502308
0.130462772592565 0.398543286140713 -0.0108927141003612
0.103770265235776 -0.539436747245944 0.0319449494560485
-0.156803479716819 -0.386377069986872 -0.00172980819309846
-0.0302669688125208 -0.178698926290205 -0.0078347978632461
0.0306414406100247 -0.0717003654522769 -0.0928597883956646
-0.136685053565763 0.799495896853819 -0.216939066752439
-0.142630481143471 0.794877311112693 -0.293460092991442
0.0582224383337484 0.66306770836176 0.0926317306206608
0.206932237625704 0.185891344033461 0.037851613370218
0.0167762209685976 0.605334120240216 0.178069892285883
-0.166336197627358 -0.877636499690756 -0.1295165604026
0.137583919259147 -0.0362835048980534 0.0181768537622948
-0.0511147803190308 -0.14061923097823 -0.0583274882286468
-0.041542703979932 0.80448934650669 -0.224611307354226
-0.156131088772525 0.291618213299594 0.17850964961712
-0.137249572578708 -0.69057306000807 -0.0507135942315141
-0.0612231506660892 0.428964469897241 0.132286766983099
0.01490851856566 -0.0707068643541664 0.143723051712243
-0.160869718214033 -0.86406488441141 -0.0941562286517086
-0.203870655033428 -0.818865880834039 -0.0876348631300398
0.279107519929697 0.247787137330425 -0.00559156696315838
0.15642130558447 0.20885705816994 0.0249879713114012
-0.0980760920339225 0.283118719750119 0.108770208953438
0.25684450214325 -0.10901519797162 -0.160610221898773
0.153442360512989 -0.788996023213233 -0.0762979576069738
0.081017640765298 -0.204560345571665 0.0712850270156105
-0.153243894043196 -0.418333808989125 0.00177199508150186
-0.0848544515924444 0.261664402390365 0.145280506003219
0.0457985321796381 -0.248801485666469 0.0554585803347077
0.0152607515733167 0.190412357640256 0.149402941934412
-0.122836188462067 0.158741837265679 0.044038018373166
0.087293950014494 -0.252256726202942 -0.108669076129844
-0.110220658414213 0.253903766392823 0.0930432818293702
-0.137654218950196 0.388410167550114 0.106364836844932
0.0783062961358026 -0.359440834469289 0.019209084296028
-0.0443219984601672 0.248040935022246 -0.0440268161080762
0.267984544074652 0.282279267107001 0.0192082100641439
0.0481217376601795 -0.209796807328923 -0.105562918941258
0.190139944996911 -0.0936552888916094 -0.150994955445647
0.307161287132484 0.0729759042631012 -0.0377403953788805
-0.134552658734978 -0.818363741230545 -0.0967675869836672
-0.0350423706454695 0.800227990343054 -0.259730458969655
-0.0797875623551233 -0.806284908366954 -0.0114679303890554
-0.126953156736428 -0.0412811176144942 0.100141674780144
0.0924079871789409 0.640054419350625 0.0636439456234773
0.113358245546077 -0.779271482270349 -0.104546129773852
-0.0119024285430897 -0.217404988529948 0.0360784961442131
-0.25637301325904 0.106003934338272 0.115625086353087
0.0453616679640766 6.33406202642299e-05 -0.0791973488920862
-0.154221119178367 -0.610980325940904 -0.0298879060140989
0.197077175259741 0.354319885631602 -0.0209053351710904
0.116863128150536 0.496525483394508 0.130355872768212
0.0252275560366315 -0.307793568704834 -0.00558103043828534
0.130089999324381 -0.00254317027801027 0.0339074305596929
0.0560721197759433 -0.580585487894425 -0.00862716119568823
0.128646468559134 -0.13462481508306 0.0247484669981096
0.0918557935213359 0.572257531990956 0.220388971849208
0.21523107064067 0.260140658108044 -0.0288513672981415
0.0132045808496109 0.633766507446137 0.138807771295887
0.0679471654840119 0.322633619264734 -0.0574975801834949
0.119848939738246 -0.56728770216908 -0.0781556606063534
-0.0975660203336006 0.263126179993989 0.176788053597032
-0.370422467967281 -0.0388919933660129 -0.020507931891817
-0.0314643611665697 -0.22397677087513 -0.0165750476476532
0.0854146286720519 -0.453323484816095 0.0172467203100477
0.0882600875276444 -0.588991848370412 0.0230798922082975
-0.153282142453689 0.881805861744553 -0.323868047483261
-0.317234559611879 -0.00435826449047632 0.0177956381091408
-0.0769295087460971 -0.11077899170279 0.133528741571746
-0.248113940985913 0.0581084367881715 0.0404224637949906
0.0362540364959756 -0.160926415640182 -0.104701953049831
0.141552188435903 -0.23178828975715 0.00833091530122471
-0.163529072454578 -0.732656308858101 -0.0561696598928218
0.164642347671266 0.257908801244909 0.0843246518511346
-0.107153684434248 0.815464173038529 -0.183502455188063
0.157508557640429 -0.795182675829908 0.00754858000980177
0.0850608417320453 0.0700135294074023 0.109078432563693
0.104424320868574 -0.125381517079662 -0.0797679919749969
-0.171807577727547 0.812867374902558 -0.25009335412673
-0.0621379830732173 0.382367294445357 0.031990387578989
0.117242277524895 -0.390910064976751 0.00475512343623355
-0.100633285915207 0.026001456312015 0.10596482064626
0.00195822192649113 0.530449938832954 0.112611982302808
-0.154618543854497 -0.703845173843795 -0.0360480178312363
0.00869652982129932 0.581779342121715 0.150871710016613
0.123757853394024 0.636035278709218 0.0993623190019082
-0.0381253370409389 0.134444319606929 0.14278864127819
-0.158250361443123 -0.123320830626896 0.028038656061162
-0.043636368296745 -0.17823961371833 -0.0366210777443378
-0.237459787587915 0.142969358592796 0.0773578875348282
-0.0982132364681766 -0.771667514886509 -0.0442650400498112
0.162989345440693 -0.861162745663055 -0.102122619262849
0.256671636954851 0.30888181120676 0.00999361382127064
-0.230995202549651 0.0959018076412415 0.127935007546805
0.0596492286281331 -0.418816946204453 0.00960016202411973
0.0947175307050244 -0.473669798698926 -0.0802825902850047
0.0330871138221105 -0.150624258378709 0.08873202516865
-0.121440803589162 -0.0935977470505974 -0.0361664077213175
-0.0565341491531066 -0.578473530939383 0.000871830103315009
0.160856393749234 0.366902187233599 -0.0215387964283851
-0.132163863984574 -0.134067817948938 -0.0404662132098979
0.0978461467877547 -0.303879441727546 0.0305454361385409
-0.0922527589670513 0.955225148450992 -0.281115718999791
0.119565395881678 0.416081597086485 0.0143064888630351
-0.0575087441155869 -0.303050889326183 -0.0253254531807552
0.156552894165564 0.387399253097175 -0.00882025569772097
0.070095515576763 0.661539363305851 0.124585010548885
-0.119452872366428 0.162041225746166 0.0713363616947271
-0.00118480882710759 0.380135433184819 -0.00578849467865717
0.132750097623639 -0.0880868034727881 0.0319946548892104
0.132725689704587 -0.0643519489544898 -0.034560845676398
-0.118385585708496 -0.363857522876593 0.042388988956339
0.137839367902778 -0.624823066581798 -0.0609877214070058
0.25229845692304 0.100694091812898 0.00814316630996403
-0.187540664414239 -0.799758303261524 -0.0809773421434037
0.0980641752137469 -0.633305457427011 0.0117555813232076
-0.126348853920786 0.841448802066817 -0.338126924156093
0.0890146271494357 0.0173845469898193 -0.069190255894384
0.235647575184749 -0.0696812088961077 -0.140984122160836
0.0525397749009493 0.0328348755093385 0.109903660105267
0.270144724343411 -0.103347832803266 -0.107574373065414
0.1167864898345 -0.368815406351887 -0.0766117390928823
-0.138123199360882 -0.247660192055944 0.0638753280457626
0.0326119652823551 -0.128427431877389 0.110843511749735
-0.130825777062596 -0.473000760489668 -0.0519195102492435
-0.174137169948789 0.171561841512491 0.096176963410544
0.0797149162071988 -0.540732755098712 -0.0712864946235483
0.137261882760942 -0.212096496288019 -0.0721492410367478
-0.0791966929815388 0.924296960452303 -0.197777398713744
0.0692783321638182 0.111974346173786 -0.0741057257170568
0.0861084105891851 -0.819847113480972 -0.112236594433522
-0.0817254922980662 0.300137855554489 -0.0105141987860075
0.0207083250331427 0.397441567160514 0.177052330676602
-0.012653548801199 0.131372980294825 0.146001570113346
0.146477032972175 -0.553081305347775 0.00368963272246779
0.136026865075055 -0.0879619878323536 -0.0342823311181152
-0.108490251579279 -0.167656241555794 0.108299398358402
0.212375493690011 -0.0892165208833854 -0.156216479445971
-0.124962517447777 0.13400494818822 0.060900799514308
-0.13215692559088 0.0832917452118004 0.057564352999992
0.0944899175157399 0.085294067203347 -0.064915464219562
-0.196006803198938 -0.845211717129491 -0.0426646580580321
0.0747012485284706 0.426300590378456 0.143743662265301
-0.0985154574343384 -0.0406737687217555 -0.0425582537402529
0.169827002921758 0.237099119183869 0.0503025570176004
-0.0299409357853941 0.287798458754629 -0.0500897196215124
0.269826940645772 0.222271257492311 0.0549736504494925
0.144783770558208 -0.184060790475445 -0.0269548406252349
-0.159733949515774 -0.241307887183637 0.0611287755609038
0.0896723320137855 -0.0811452501332948 0.111117963918772
0.0381810374947638 -0.273528959677325 -0.0921332481239449
-0.29573209107279 0.0749635260449509 0.050444255523501
0.122828580392393 -0.882891380879014 -0.126107267736134
-0.187764094404279 0.886030897424396 -0.246034998826657
-0.0627778326985562 -0.0670951800229123 0.147101280470658
0.126711075463376 0.0109246582698845 -0.0271989053535824
0.0119053801868158 0.458534031780253 0.0732768560753339
0.277950227182379 0.166882869751254 -0.0252562862841892
-0.0111391594476211 -0.00361242761868511 -0.0767497323683884
-0.115295674113045 0.25625235990359 0.026916975232239
0.0473093952831402 -0.422289121720625 -0.0569653170938338
-0.099482979826928 -0.723362044566302 0.00182679750247658
0.190150929531539 0.261151154647764 -0.0234930954891281
-0.126053557759042 -0.0872604157520595 0.103290305189825
-0.153999510406833 0.363507286228385 0.17130542564018
0.103210525704893 -0.213588166350117 0.0593489374109677
0.308525434623209 0.103116349353853 0.00323862116184337
-0.0774690091227751 0.927892058229023 -0.316192462284474
0.0129334836288772 0.217931269530628 0.156555933286616
0.133231674003948 -0.690963118315426 -0.0725664956775263
0.141621590949624 -0.197214716104797 -0.0542231425463397
-0.163683782697012 0.1515873364043 0.102813622935279
-0.054897221811578 -0.0130046377970269 -0.0640769683400515
0.129201568507519 0.0186992678982291 0.00559735256594131
0.1256405183206 -0.891292567444477 -0.159435513555261
-0.150880336361615 0.383738646575607 0.136331820510361
-0.115997301078978 0.12111686402601 0.0149776622197111
-0.00986990920378844 0.856965580662969 -0.263658642984761
0.167265543077667 -0.793238171545635 -0.0165643364099506
-0.12770663957095 -0.168749990130908 0.0958659756499116
0.132673123211278 -0.446769572479609 -0.0174297548131762
0.0993887234478806 -0.359595156831615 -0.090014997037895
0.0957927205809483 0.289654787612331 -0.0645142264041575
0.305555216475189 0.0548020979445738 -0.0230087146251298
0.110776182931406 -0.0507024522456149 0.0936179906238122
0.0873317148532751 -0.407313850469048 -0.0962304070232824
-0.196473443799634 0.173379990842986 0.160614713429241
0.239777090755009 0.0216346963232408 -0.0414097463198298
-0.0467800674800406 0.0302344962257443 -0.0656268788274122
-0.187046110524927 0.113614567794766 0.0904262742444655
-0.109807211365452 -0.220575912265331 0.0994791353852375
0.0300641341633093 -0.00381900391907444 0.12948955659432
0.0797536802098366 0.5229358710048 0.035498403374333
-0.0899051174710628 0.326648296190575 0.193843722749493
-0.0289736914124869 0.841834361602582 -0.302070369255123
0.14685298421082 0.186539835004796 0.0626113915915636
0.0142810875284647 -0.147388038902567 0.0766091568961188
-0.0580869565966192 0.287733726256057 -0.0374265831144018
-0.0659410107719339 -0.298949740807772 0.0622466045138439
0.0174339381752274 0.0634656663415805 0.134184021639198
-0.127032342990535 0.0136162154113322 0.0798251667586197
-0.0619620690763281 -0.501137427585157 0.00702465898860079
0.0533557663046558 0.646759618006234 0.169278174715069
0.0755582971150815 -0.878488712742371 -0.102644110826601
0.0861973933281034 0.0936895773713385 0.109183410079804
-0.120422952892198 0.204273590773903 0.0538420541008974
-0.119071759733743 -0.665096450624942 0.00966278272597581
0.0510451944972374 0.5458123398181 0.0276968507901594
-0.133620573626239 -0.0323070658191608 0.00711225485078993
0.0427585781353102 0.623465780414628 0.0564700875352956
-0.255637963923143 0.123984864401685 0.0626264603659124
0.108057221776646 -0.253613434996012 -0.0934044475073771
-0.145782906846739 -0.1265829729552 -0.0206923234828303
-0.0717362332239742 -0.208300936327524 0.105334388899597
-0.0401140625526236 0.87549432477613 -0.188567835759102
0.0833195280278359 -0.661956184363873 -0.0572591259887298
0.143950765132421 0.609956029358459 0.138993590352021
0.10130185959292 -0.524332673517162 -0.080164996714565
-0.0415311489624885 0.422515456784814 0.161571874098852
0.112294445747484 0.0470041037829068 -0.0587915081128946
0.00856693796102729 0.0349293087815371 -0.0827551620096919
0.200619181847831 0.343516220444371 0.0902075997728311
-0.292025262554444 0.00609907463634909 0.0130809947613849
0.106695275108846 -0.858474336429846 -0.0745597692420723
0.202908138004742 0.394455221293665 0.0126248142583409
-0.0911740203918648 -0.278185003302179 0.0884025502593963
0.124699354584461 -0.302579911417866 0.00317140187245
-0.0710703664618574 -0.36524128005419 -0.0347290163583469
0.0606508100184258 0.414046504803374 0.155869364900366
-0.080258945622422 0.222476373824684 -0.0262769034200261
0.142985099756355 0.163146613996636 -0.00761952454022461
-0.0594318969339567 -0.392528484360046 0.00924084500393833
0.125334795233979 -0.739765797992658 -0.0913932415995894
-0.174031452743267 0.114680819387153 0.128717855451932
-0.149326239769872 0.926324716796578 -0.220272959864142
-0.0602943222847456 0.133187431036246 -0.0502984320705473
0.00509534925955659 0.575330396497612 0.064978683530762
0.116788371098723 0.531975242827591 0.0889339610846627
0.285843060644131 0.185119552413486 0.0364123867550622
-0.0571373598204596 0.854172997556645 -0.177608426298254
0.0102414967745742 -0.238939264174855 -0.0547983980587408
0.095478459561535 -0.392568421583709 0.0180238943296465
0.140144201016519 0.122966947607385 0.0220154555879698
-0.178317345071821 -0.217758478951018 0.0187291234899143
0.0351725847570362 -0.296290845309832 -0.085778480262132
0.251966404767891 0.303255830377004 0.0540140792750798
0.0583150828241747 -0.490534707571442 -0.0562037045756582
0.135230618778156 -0.122091161787654 0.00184214177179021
-0.0570550564640932 -0.555936390824583 0.0182786784975318
0.0583964505855319 -0.452528991662351 0.000758384023031153
0.0781726871692093 -0.295463946687904 -0.10074660409953
0.0933297024088351 0.320737583683293 0.152072938614674
0.169469309416502 0.315511030141735 0.101454084895974
-0.00865893759595168 0.214255071082453 0.158060956415738
0.00551039615023909 0.493754734077636 0.0967697190096611
0.0756462207708015 -0.613828749614051 -0.0587806318680506
0.165871862449822 -0.832388778214446 -0.0477550986925817
-0.0267886098739261 0.0514307528669658 -0.0812036232941614
-0.166834074649979 -0.184649388680506 0.047153063183735
0.0667252948236806 -0.10070433049793 -0.0935153176537172
-0.0854564177220998 -0.231299752660967 0.100745636908263
-0.177464361226518 0.266560937989693 0.167826019426144
0.0931269259157703 0.4097567030398 0.139717820173886
0.0711732397207028 -0.639193870135563 -0.0308203224732206
0.0989182479953554 -0.0146710401604389 -0.0636457848111817
-0.162124370844068 0.19426256462973 0.0970482134458817
0.074039414995665 -0.444896650624479 -0.0782389952673284
0.0631094981026595 0.443903914525331 0.0519010969644251
-0.0118700741989845 -0.178336109963274 0.101397071309543
0.119690031342993 0.0516496804093513 0.0708901500562826
0.0232300781772723 -0.00621443989729885 -0.0830898706315146
-0.178252649285588 0.20858589970246 0.101232144778623
0.222582054731493 0.348545610352196 -0.0144856843138341
-0.274248006220463 0.0641042436273848 0.00729473432762267
0.00304525048024282 -0.120613372705472 0.138404338661646
-0.147706676378458 -0.573417962065939 0.0171223594088002
0.0970276527609331 -0.714997418681952 -0.0635988955678569
-0.0801341085405458 0.151362393242684 -0.0331327583255787
-0.153722558767844 -0.453226883945623 -0.0048414835917565
0.252082995291959 -0.0129491407016072 -0.100497744349601
0.104944937988135 0.0135232455113775 0.0784719899996664
0.0814350723069379 -0.337031882847603 0.0241542482860176
-0.158275063288937 0.138581253385524 0.142202483072041
0.240327394758803 -0.0397585947667596 -0.0741528946663447
0.139472347806884 0.0595948368996052 0.0334607304953565
-0.142023670018277 -0.65561221678649 -0.0492088235268544
-0.0467357080291779 -0.326801141207119 0.0201434387023005
-0.00752243952924457 -0.196390131111045 -0.0240535963597216
0.0227226963294804 -0.27872356439529 0.00783389883065119
-0.214702329501604 0.0750766468292383 0.0984142611979327
-0.0892466586578208 -0.387553246962487 0.0419571436360747
0.13613995315489 0.0821022245565011 -0.01684129076369
-0.0801791296073019 0.040632463158378 -0.0472266154693188
0.0773777357435655 -0.619587653325761 0.00791959739646057
-0.0365716546101124 0.404002112699428 0.179933628005951
0.0740711598684058 -0.146034284345072 0.0956942558123223
0.0951632300573172 -0.0524332342505981 0.108326041171396
-0.108920074285772 -0.698030031957763 -0.0526190589548857
0.240706204340743 0.297480795634734 -0.0185409016708624
0.142280240319645 -0.659565036696937 -0.0250040144732293
0.00566634039076311 0.146050444512816 -0.0747348120493686
0.225400449439113 0.289155516776091 0.0657857623673709
0.136201914005436 -0.2519343179794 -0.0491104855555354
-0.0736766295578851 0.775593712180119 -0.259760084627635
0.108872602645571 0.281712541177234 0.135827575164411
0.279219373849941 -0.0500608187021152 -0.101957161611551
0.134566042466379 -0.544758504232273 -0.0667529097271247
-0.0339245554030229 0.110071396414207 -0.0728611128943388
0.300512492332318 0.126307638315396 0.0223336867062464
-0.056014906269109 0.0960617128094376 0.138447197133704
-0.357620324675598 0.017458953032124 -0.0786435818165705
0.131681778431098 -0.492978122043208 -0.0642258677153734
-0.16257523567542 0.835724334191661 -0.199201194884969
-0.16188111793587 -0.161808524062916 0.00261583982720897
-0.0921625557602825 0.182426148088998 -0.018512778150143
0.144753676452852 0.342156497847166 -0.0202444825317693
-0.14690681698874 -0.463752916724007 -0.0413474460903531
-0.181680952980464 0.866543025851321 -0.289865641668956
-0.151908842985252 -0.169002661831269 0.0781992088681326
-0.19094041649189 0.228350646139781 0.163641719384424
-0.135600735524993 0.211333942175096 0.0883420003101786
-0.119278045052173 0.0770820617581314 0.0977131411818903
0.103764936784538 0.331606146723172 -0.0536457611235174
-0.279430454451505 0.0305815649825335 0.054461189269738
-0.372785146553928 -0.073814264222106 -0.0741387882074668
0.0760894757502219 -0.292521129805085 0.0384806717769231
-0.0622534030848373 0.177551774606343 0.144476477009173
-0.110656481991427 -0.826806779459532 -0.0508218413426959
0.0405333096513842 0.65753515609636 0.138720459089663
0.118125864220762 -0.402109393440601 -0.0691417859477838
-0.336940839408446 0.0291891526337194 -0.0196962962523277
-0.127296616832825 -0.276211733450792 -0.0604635078010533
-0.159418016213133 -0.778530818156823 -0.0844251870190528
-0.0714998523250774 -0.545146810500812 0.0374161529644351
0.0448915602131118 -0.170076489362543 0.0844591329908011
-0.368075478536696 -0.0641580897538537 -0.0913441920622485
0.10211078182637 -0.784303933803449 -0.00410493906286478
-0.0167532058133969 -0.182924818291834 -0.056148983341158
-0.099633064665718 -0.00717122115210782 0.11886908553479
-0.0416271702323436 0.934349617085882 -0.278548900835501
-0.123661652773441 0.935790506908707 -0.206720705739614
-0.165368496591934 -0.352783060374955 -0.00695831133677543
0.12397484045299 0.226129380724521 -0.0413867113570092
-0.0709247673129431 0.7881944619093 -0.232335625463461
0.0151023238042872 -0.118053311538501 -0.0971550346790896
0.127072198595225 -0.542218089364677 0.0216001615060546
-0.1094663950075 -0.100484788514667 0.117310138918492
-0.0628553137851769 0.0142420710520973 -0.0552202893354362
0.124171857859719 0.51798547682691 0.123871510662393
0.0684302585286481 0.132894508373609 -0.0719824664179347
0.235274216701556 0.154386634735495 -0.00984236255038063
0.105059453632036 0.653401244405049 0.102764374526453
-0.13350777364706 0.924517221593431 -0.319956017555066
-0.0856657147241478 0.0850510402425112 -0.0406759809792162
0.0753580309740946 -0.229157437485669 -0.108908296565996
0.137449877623514 -0.497175083026489 -0.000272295100457811
0.2953930997578 0.228640771623995 0.0187046361537508
0.0703050219336473 0.289760163974725 -0.0675150711996473
-0.123092406865717 0.867433821235425 -0.171109162907822
0.0176857215208807 0.0211274518272879 0.125838630664019
0.0974178924326451 -0.896692194923658 -0.159166792371517
-0.127134222298445 0.239814069245809 0.0865480669723057
0.0780688691121196 -0.409015363137564 0.01637863632322
0.14764290390285 0.216316054041137 -0.0124810936168779
-0.13004274219039 -0.814531924353739 -0.00127354825776831
0.297628711901036 0.0664079974007473 -0.0598890953722036
0.0868297846965334 -0.562683359672009 0.0304404462782907
0.0766299001318079 -0.122643162268674 -0.0946387218718393
0.0203299714618902 0.553722723893842 0.0248168338348074
0.138021772713999 0.339706627213201 0.132305941285825
-0.00683268318928794 -0.176108399366891 0.0360197888591064
-0.154778144324758 0.339180205116491 0.180559815398406
-0.140828841930116 -0.844316789093843 -0.114249501384168
-0.03121283891202 -0.143453135000178 0.129034520386297
0.0596308160846861 -0.590958885129432 -0.0263530662610687
0.269210070790527 0.197118829991634 -0.0188797226651114
-0.00273327326288663 -0.164800823589491 -0.0903072461820663
-0.16106816109523 0.860000308593155 -0.32508922129363
-0.0871673936394434 -0.15724320578129 -0.0656901276654266
0.0163676792557274 0.493493830952979 0.0227586560992636
0.000873514680754435 0.251381018756352 0.165382603423563
-0.0474673498846622 0.793777631295842 -0.243231114768516
0.289508806340968 -0.00312186301415527 -0.0754777502333436
-0.0928826849016016 -0.703430903554734 0.00381916415440021
0.0756543510829983 -0.16624262038283 0.0827513490753064
0.0431583814261876 0.457067036825652 0.052157328634243
0.0387526937086399 -0.0351782049415857 0.133534425598005
-0.0597424795633596 0.157232555163012 -0.0485854162097717
-0.0107047604853376 0.00399330240671609 0.141819892193952
-0.0772553113547237 0.907584541399751 -0.179025433835605
-0.183471289518579 0.134631308860698 0.0822554575325239
-0.0813148631040684 -0.599842426010468 -0.0412800089967953
-0.164758691179181 0.146474091085029 0.168570478661963
-0.0900551880392525 -0.769321021330241 0.0234353906269705
-0.0824888683667728 -0.671797599590454 0.00387964674499718
0.130147744784425 0.378126378387611 0.133517604960575
-0.171824978095464 0.212965433780262 0.173233561312071
0.031024746326456 -0.357084177475745 -0.0234939942281378
-0.154667100533551 0.853861687363606 -0.190693156421604
0.0686013638881569 0.564982857373259 0.0353302427612715
0.265026042854686 -0.154212430863538 -0.151933786541968
0.204328906352404 -0.116078623582072 -0.16846773533357
-0.0630988615038602 0.947569486704291 -0.246470814527043
-0.218240130086011 0.154372073430635 0.0837805882780053
-0.07126435852304 -0.223375632125131 -0.0436534875330715
0.0800837138531827 0.482727515192653 0.0571828609575434
-0.0932654839497831 0.860446987466841 -0.170635113061138
0.0756995923665922 -0.0145957903906009 0.111381902391372
0.123969689484883 -0.273009827803098 0.0321262122475511
-0.0429410556959408 0.403636340707948 0.0434276184654988
-0.118337358151409 -0.734547910216811 -0.0630507573809044
-0.0576189785158397 0.916653984206842 -0.321312362398314
0.0279195358370045 0.426537497806314 0.0333379122677413
-0.0552850352771948 0.368123571010804 0.0130502410847045
-0.115275527654488 -0.432138930873621 -0.0534127696958078
-0.0894871974558505 -0.303843242493578 -0.0577738702056687
-0.12598129355574 0.366066634880003 0.193186772924215
0.112459449401326 -0.688444914344719 0.00251593458295552
0.0864366220664975 0.0274849077007914 0.0953954743233375
-0.0823373545647384 -0.760106614630704 0.00702615372712687
0.133431271293636 0.429445494859425 0.0694412713090961
-0.0864886261265724 0.191202017168076 0.131571769103792
0.0014336253606757 0.391913893983576 0.180305464824644
0.261981113800083 -0.118872191542861 -0.127148119477924
-0.137049573494051 -0.248299691367774 0.0850139038995954
0.0915255978987677 0.537386775947442 0.0440542318125248
0.268264065419904 -0.00719557676157921 -0.0470706551952916
-0.248837382499767 0.114762931380616 0.0459081743096519
-0.106888959972033 -0.2597020519229 0.0761077679391248
0.139743768861896 0.0413360240978115 -0.00899901268191607
0.280175321253975 -0.0194784318902551 -0.0621964623917121
-0.0409958332670628 -0.125592129851343 0.140695619885164
-0.0725400934059327 -0.0224688727237623 -0.056035799447616
0.0934612297595518 0.53439860774705 0.20673295377734
-0.158813387623233 -0.276074338341885 -0.0326344729358456
-0.218536506479515 -0.842654862999409 -0.0885595408560808
-0.21471618731152 0.086051608408794 0.0638405088518482
0.308578218349972 0.102825330924895 -0.0291566504399228
0.278594220082292 0.222369206383952 0.000239205341346931
0.0177030715447561 0.292703702801807 0.174454115703268
-0.156409861018417 -0.76466719115129 -0.010809628550914
0.273736237368389 0.263617221308204 0.00789772378554501
-0.0388382563713859 0.246979610445855 0.169059191078804
-0.0166724195445498 0.840147354587085 -0.225006164089814
0.0873419200496 0.187471579500829 0.12119465975367
-0.114015416286274 -0.277901367111432 0.0698919094248339
0.0186046940941974 -0.304975488073888 -0.0295001320361496
0.0181381064002024 -0.293872746323591 -0.0643907958525635
-0.0353296645862479 0.33379633743253 0.189068696695045
-0.13939667050909 -0.628159323034295 0.00668190914153534
-0.1489761950801 -0.0886395119607608 0.070305547014353
-0.119289177114755 -0.523814957535692 0.046504474328761
0.292857147925918 0.114347920945231 -0.0454858261675953
-0.132593254281781 -0.127731119253392 0.0941217719342989
0.18483557572264 0.408056794229509 0.0396594631783923
0.0520071993380409 -0.475326789056862 -0.0330106728553491
0.225951503272613 0.313833679019564 -0.0229032293055386
-0.191041191275955 0.106663793448431 0.135589585303101
0.265795057481918 0.261700844844609 -0.0110301031436215
0.132045530024429 -0.820618129173633 -0.0172260771588869
0.147955566562763 -0.766983057102614 -0.0810847639703577
0.0253332430203853 -0.33702119080677 -0.0337682657856522
0.0397081378540702 0.571050146760307 0.210124030090332
-0.0844295480449471 -0.0607220187043355 -0.0561823769894695
-0.0665018778923445 0.826972584171888 -0.330257685837826
0.110486682023309 -0.280858315567232 -0.0901039192814928
-0.0904417675400384 -0.433558950735916 0.0398896729419318
0.0976370236793459 0.440745439500998 0.107416811974429
-0.0511998169507118 -0.111325317409188 -0.0776788928707069
-0.267274015945243 0.113296546222374 0.093901703735657
0.265700837200997 -0.0533252166636169 -0.116561649716928
-0.0780026922370408 -0.446645538341635 -0.0360720696028795
0.089098703378028 0.205720259433877 -0.067443835447596
-0.0599938912520741 -0.0527666465228146 -0.0699040111324717
-0.134205614941429 -0.415411173770407 -0.0543993484329765
-0.0937505667276259 -0.584185224685488 0.0371196288981344
0.0208088680645433 0.517247704926162 0.045854270687982
0.160740222309878 0.273064702268666 0.0965366976286484
0.242605554156275 0.343777488238803 0.0381354371351384
0.0132475651423031 -0.269793548313912 -0.0480274303852932
-0.110203912421195 0.779757350211486 -0.287229986792868
-0.114425228743005 -0.792875223943003 -0.0613545802149541
-0.0878611082307508 -0.734170571777282 -0.0328637551038379
-0.113061001210958 0.219672704882046 0.0171995681436445
0.147687522817756 0.571626506826617 0.169978758489084
0.0266630007988232 0.571802268581703 0.0513570712734061
-0.14029856196406 -0.259026402542298 -0.0466480292219417
0.00220060126095236 0.0470668277570392 0.125148127368881
0.183725247976682 0.254153483858114 0.045256891611418
-0.0808139179629799 0.0579471016251682 0.130742812584681
0.231232301257852 0.0671681171073839 -0.0401905167338024
-0.10228289031177 0.892466124975153 -0.172654572327046
-0.211597373429033 -0.869521265950743 -0.123357733696575
0.0867853139920918 -0.890546968565426 -0.133575026728803
-0.0519988745842199 -0.277747156011352 0.0634863772647392
0.071020771224022 0.39617871769985 0.160030336976404
0.236149597079602 0.0831385474145413 -0.0513688522472469
0.148138090404488 -0.859721191135048 -0.0891819104572087
-0.151426669100308 0.172604310740648 0.164568127848061
0.11798860827103 -0.707008327208039 -0.0765263338881574
-0.102868560492687 -0.169145197923297 -0.0624871421115737
-0.10385116827295 -0.646242368932702 -0.0525523488669573
-0.0137984367181875 0.883485338696945 -0.256494146813503
-0.332727336756768 0.0265215909252306 -0.0589992285339744
-0.131443074381689 0.203078488980254 0.176337456280162
-0.0176226548894375 0.17449817649032 0.149691016112933
0.0582998075349051 0.483226204617037 0.0340246521672567
-0.273099968082138 0.0348546156667656 0.0227559493056998
0.113154243753169 -0.101396235264435 -0.0690612276330887
0.0659738022672855 0.510112707723369 0.19196896753049
-0.0229116831354001 -0.155732593369471 -0.00585356850197011
-0.143533838515441 0.332491498793618 0.0848120746491179
-0.0824001119009103 -0.273213112497041 -0.0538495950200833
0.132222972789268 -0.246112580254978 -0.00540888579458463
0.131679280652565 0.399789633189257 0.124241930414562
0.0135521904555921 -0.176032662636816 -0.0985056948212357
0.1456995840331 0.379882599376532 0.120315519980487
-0.127624980411219 0.0997526712233694 0.0479600553822481
-0.0316048393401335 -0.0395674023353696 -0.0814215510356516
0.0677160385774492 -0.860572658991248 -0.104973337955029
0.126245051308533 -0.176088460849644 0.0330989745235074
-0.172649485279449 -0.222620069817451 -0.0121130937627645
0.291809829150964 0.0137517302741882 -0.0437310014302386
0.146355175410289 0.237855614416117 -0.00792915401028735
0.045471346775723 -0.322514865326068 0.023720026919795
0.13935472590305 0.197041484943893 0.082998688492002
-0.17382019249854 -0.767312482810007 -0.0457352765734283
0.104545490618813 0.119909738288331 0.0983168569787684
0.0157077705560611 0.0784717819153861 -0.0844128604858135
-0.0192895363450882 0.897178789707216 -0.230166174534637
-0.0741714256461529 -0.436782564071963 0.0255300353519461
0.0622462943054677 0.0706297599233852 0.121915896124366
0.0666893404551021 -0.0872131781090209 0.120785667735857
-0.147899231110388 -0.18148234864955 -0.0390861302933236
0.134185844373512 -0.864131389746678 -0.152166336936276
-0.0201371402223696 -0.146843073271806 -0.0820763510676634
-0.0800999932043464 -0.0821423818969703 0.137459315464862
-0.0604844766018988 0.845923567450911 -0.337293917461923
-0.100105351126863 0.206984297597694 0.115751801540381
-0.00669153656307414 0.373396152304588 0.184184161361256
-0.0790054316941443 0.949446772947131 -0.226746032623457
-0.129291498899585 0.943660469161088 -0.280309160178759
-0.124531775824676 -0.533590379070301 -0.0543247064305185
-0.0349099777879559 -0.255895246771728 0.0645849535569837
-0.118446950832863 0.27155221731551 0.051344697991638
-0.0924055716928975 -0.627291382959499 -0.0477828887748563
-0.156908496366667 -0.333263065471946 0.0206993602242038
0.144940078729908 -0.748785864695975 -0.0869061316486323
-0.0231896316584688 0.347944949364556 -0.0232984782188508
-0.108845320326519 -0.401430557923715 -0.0576353239570181
0.151301225148488 -0.556392486593008 -0.0320506617448029
0.212560436520195 -0.0773021994852677 -0.102969953345464
-0.175699394683981 -0.829442875124474 -0.117232408334056
-0.145984385541148 -0.583850196574164 -0.0467163372996783
-0.0248114457661096 -0.214716747226915 -0.00100254792189221
-0.110551995721406 -0.102535323255044 -0.0498175505236184
-0.16947533277802 -0.826772162635402 -0.0128125675556321
0.0899125148109509 -0.790489201278375 -0.0589389736407085
-0.0943916304631084 -0.348528623451895 0.0511600467095299
-0.196819977174617 0.249957705780346 0.114591070042471
-0.156965920051966 0.932878436420361 -0.277154943341164
-0.0406286978893431 0.875294597266819 -0.324385988299152
-0.135275619537035 -0.763797795871407 -0.0757088611261454
0.0891357028694774 -0.443369074107786 -0.0900645270700269
-0.0639788120516049 0.113057302503268 -0.0517516538030103
-0.190960933154875 -0.817777822004911 -0.0390783516305223
-0.266216538446709 0.0854979242176753 0.0236716192634026
0.0501181780684453 0.42469896983872 0.026567358524297
-0.0917295945977781 0.423002783519153 0.138321870476167
0.13339540491424 0.291022174805768 -0.0314259761150587
0.141437515403847 -0.712632559789309 -0.0661312743814325
-0.121631009575083 -0.513262860637035 -0.0536799200236984
-0.0985403557065325 0.954537169314661 -0.263036465366146
0.0444207803545273 -0.0957066609713097 0.127340996706633
0.0370768105097828 0.182287006331454 0.13984686430867
0.115557806940529 0.583413684680886 0.0786134954189191
-0.0157061326142052 -0.170344429735232 -0.0169096246119377
-0.354664373892664 -0.0741354180455942 -0.0348866665020041
-0.16158879886789 0.837639166723807 -0.313698981146532
0.0898490157915505 -0.697421565989126 -0.0582428920781389
0.162734120216728 0.362207783444716 0.113427935296067
0.0922342628889495 -0.264171460085723 0.0495644391891462
-0.373664277438806 -0.0205884518593222 -0.025719170579805
-0.0567141920458192 -0.354420777003483 0.00115064598490732
-0.029141727802768 0.913015014145848 -0.222569456887487
0.155531488164034 0.405367340084419 0.00793248675833276
0.289446110157708 0.0496003263343945 -0.0143819660622221
-0.161929782575275 -0.291281446276447 0.0262413962702175
-0.117282465388071 -0.0158660094316309 0.104658775055562
0.0686772862658991 -0.636993228729907 -0.012120333335385
-0.0373101129345657 0.380230182473555 0.190273710821832
-0.167508268056985 0.893318555383131 -0.212717018088552
0.114972736212147 0.432782328120283 0.0614632122447185
0.0283569167703883 -0.240321538688226 -0.0851400554878422
-0.08191604294278 -0.61728501812468 0.0222022457137832
-0.117184173592079 -0.739077678112452 0.00596143189159841
-0.0901511917529798 -0.814465632726066 -0.0262159280383677
0.108992601801446 0.354253676909701 0.148816507062239
-0.0686918162467984 -0.382673624265121 -0.0268138679588509
0.14124872031077 0.142631821393306 -0.0108774938254287
-0.0568291393978543 -0.572471660440999 -0.0192565958479641
0.0988858638422223 0.585771580835745 0.0492773191334909
0.0793160051253643 -0.142057369316548 -0.0968963917914657
0.10001828886212 -0.119807375017709 0.0918327617856765
-0.0972143798140997 0.135588006582565 -0.0165231183921283
0.0734441188366217 0.14649793552708 0.118502850303332
0.122015668778327 -0.44701263020309 0.00241471514579811
0.0659844943053187 0.114798617578349 0.119609035223341
0.15285699069692 0.18953867070204 0.0353750740986314
0.0872483552837016 -0.715733402147625 -0.0319664459442494
0.139391580792475 0.16589289358392 0.0682581755427688
-0.0412045958109141 0.169225570443639 0.15118280458738
0.118726782271078 0.313342310435172 -0.0457063220575619
0.0698104095220715 0.270271713159245 -0.07024033309072
-0.0272716866233552 0.18147576799246 -0.0643781435724994
-0.166094125017597 -0.871582739671337 -0.111714563591038
0.0408306996451997 -0.423028455747549 -0.0286025794257672
0.104653732408712 -0.520733590388236 0.0301536624019138
0.12893520578595 0.11522756029049 -0.0366767814019437
-0.134571261205424 -0.295228597993378 -0.0580795906000684
0.123488075592178 -0.198735145204717 -0.0860549862273679
-0.164299633906998 0.895692982128012 -0.306712952918334
0.081544956304111 0.590377208152948 0.220959823550131
-0.0620124695476386 0.126159049553545 0.13571683510792
-0.115321335283433 0.0751705112623061 -0.0150736537123165
-0.123020735058498 0.93439784266447 -0.30783922140705
-0.026940821997485 0.0305161116803733 0.136142140441103
0.00430189285775052 -0.093336857847071 -0.0930170635230149
-0.0116923182300048 -0.0696011017179795 -0.0881924154881199
-0.100301303724614 -0.362379497140772 -0.0566039016219832
0.182141247871308 0.329997162771909 -0.028010445637368
-0.119167840897062 0.946805013703565 -0.22707859106412
-0.10067016087669 -0.742137654913669 -0.0490187220369965
0.132251301535826 -0.161038041431012 0.0237626485046506
-0.105070800962726 0.776879984856854 -0.248464217932043
0.0518484102843271 0.662688837760144 0.117483626393266
-0.0499903111791894 -0.0166724927761566 0.143914496008603
0.0435304278203055 0.453672642703915 0.144658641976416
-0.11140131776203 0.320667979640802 0.0360682924315406
0.301721372561588 0.175405111965109 0.000602025706520665
0.112923291640998 -0.645506575196369 -0.0758921675593487
-0.357526805005223 0.0126071925775844 -0.0337064040729358
0.129001558780667 -0.265838465612799 -0.00365939597315265
-0.0690172578707958 -0.489801516449629 0.0263627077475066
-0.0987795436432626 0.359327918407497 0.0456115545913183
0.13805053527348 -0.0970762147927768 -0.0125182985909868
0.00717000056093956 0.607004901991997 0.124822264002387
0.183934204085108 0.370334813358653 -0.0148947732505953
-0.137488523398795 0.380568847170584 0.178303916208584
0.215349107262965 0.381959858958055 0.00662677290988513
0.228016078045511 0.365228416040809 0.00224847494137543
0.127348083710384 -0.26700063765996 -0.0660896227653464
0.221281532014047 0.220630239685442 -0.0353347163740549
0.0567504049794276 -0.52045645660855 -0.0126381617946656
0.00854202908399354 0.298793970264229 -0.0598757487704438
0.103458618272037 -0.207929304618788 -0.101857151304638
-0.0687308199365006 0.205976688878285 -0.0384563444515006
-0.0154584016754722 0.83305783996383 -0.255297657004826
-0.0701348042469644 -0.476034845796885 -0.0117838945813509
-0.0031350794303675 -0.0715205170588439 0.149329467111937
0.279670971532643 0.0302284120401603 -0.022108045326481
0.204628750166106 0.27506765975738 -0.0259922403063205
0.284625556506042 0.0768809821245106 -0.0679330238123041
-0.30406231106755 -0.0117808892413506 0.00709619952133927
0.14745750213946 -0.608482318227331 -0.0227549404851171
-0.136161074573618 -0.782732527604378 0.0238517154269191
0.0940562954563825 -0.755151622885108 -0.0731472682344396
-0.101274217743683 -0.292346902146717 0.0694458407724788
0.254133602709792 0.210785800957494 0.0499210074169811
0.192029819688774 -0.0812905891240679 -0.124513235839329
-0.0269132160727084 0.215625129104917 -0.0579521191035645
-0.187040530037728 0.850547650911148 -0.233573110065816
-0.140972808329933 -0.306489746154345 0.0471597692065621
0.134802684037666 0.225277287722879 0.100090433642571
-0.0831997821862832 0.24724014218079 -0.0164191247092934
-0.0601405892755622 0.252109023433302 -0.0353933645795779
-0.0677296284936245 -0.204813033008044 -0.0561732168687028
0.00306210291209129 0.271596652190936 0.172612091814329
-0.0580166368452905 0.425200777492692 0.150063940228612
-0.096120647112975 0.377390446544406 0.0560504983379143
-0.141173999497516 0.944875244686112 -0.265531887089181
-0.0641028276533549 -0.0781764581419706 -0.0715566233462817
0.0145038875180103 -0.229688050476601 0.0290951258049014
0.156905770634405 -0.760168753046173 -0.0258611140791894
0.103247153580833 -0.413166223275379 -0.0862087184108252
0.131830076678813 -0.232551783086343 0.02688307188527
0.14008598588714 0.254113286096976 -0.0199766589071628
-0.101640767259313 -0.517474959685777 0.0452857221646913
0.103956980590922 -0.19524149558205 0.0589643924444701
0.269705253417343 -0.0651995053379892 -0.0825230033242769
-0.219761608351001 0.17120227919152 0.122830690287289
0.133632264743352 -0.290977172152633 -0.0429973763075735
0.000379936059315842 0.424912709418835 0.0414092013085729
0.262198396743734 0.0969151574781664 -0.0634227948663552
-0.158177133441059 -0.576705929024809 -0.00400656394705517
-0.275004096248889 0.0450289181827196 0.00463659831736586
-0.122218369262782 0.291064184974925 0.0822499106601247
0.0892187685881944 -0.826637908316229 -0.0589735520999918
0.0578713704421038 -0.507011862864833 -0.0252803109591829
-0.0696944962767887 0.362032584612276 0.197913655037802
0.078414288629743 -0.885752832616479 -0.15300471522054
-0.140148632087996 0.399746854231218 0.143397258291449
-0.105658507088879 0.385834086603434 0.191914952738738
-0.00201011940681957 0.571011563964448 0.102909929233766
-0.0408555506256478 0.0877048674016035 -0.0753778101650322
0.104460067065819 -0.468689042534309 0.0192897113519828
0.14503411095108 -0.210706145048865 0.00537493101553672
0.0594653491940544 -0.488916959532189 -0.00957331235599289
0.0417401285962716 0.291047337689183 -0.0683889867866231
-0.0322536501888374 0.816554732724248 -0.296140164014229
-0.115234434237963 0.102927826391196 0.0970042137417165
-0.11682210756717 0.203665713627344 0.157060795391081
0.060216964853072 0.638262051945726 0.0604328242147995
-0.0149509992599214 0.238431424897874 0.163921908574593
-0.0848432356830724 -0.362928464901098 -0.0462911683848053
-0.123076659479459 -0.621591697933367 -0.0554579825587756
-0.146956423928651 -0.742854931814522 -0.0135876259978929
-0.28839528660149 0.0849045006258564 0.0636849210857646
-0.0659050966311769 0.394120870518002 0.0507402890439566
-0.221528533127134 0.0666333273579767 0.0839186753398509
-0.0764467899823833 0.800213775857635 -0.19910326987663
-0.132393049295932 0.900961402330212 -0.184372366002013
-0.0499548498926418 -0.0402985611611553 0.148417686007318
-0.0975469235228102 0.305543972727795 0.190264331677559
0.148096873750065 -0.526963697340483 -0.0416483851855939
-0.0421865257392441 0.916696393097494 -0.31005484478633
-0.311407014523807 0.0331778335271942 0.0391501182560399
-0.0873206936158701 -0.539283994342439 -0.04696224040463
0.0918823525745474 -0.855269790410717 -0.147648224628707
-0.0279153856236255 0.00880225296475122 0.138686186898346
-0.0361532949797215 -0.279268600997362 0.00962880341340374
-0.381375984904838 -0.0395230753828886 -0.0794825101708233
0.000404223918313251 0.531913456735333 0.0558049501189314
0.231409697107475 0.204269418528033 -0.0278747356170049
0.25702253142943 0.0160691484235283 -0.0367787937697564
-0.157069822233871 0.928419928506763 -0.236416339885461
0.000378125699528531 -0.19504954311922 0.0117282217313435
-0.0198208118400156 -0.0952950469634088 0.151956545293219
0.243923732141945 0.0592310768985428 -0.0693373613602373
0.253523756820311 0.323366974137906 0.021729497022662
0.0174225745002407 -0.261769788714816 0.005030686606898
0.138548105589063 0.558960036235998 0.119784814875369
-0.165669050587533 0.308288890103689 0.11193245156622
-0.0790714688521355 -0.6879340064312 -0.0163718187532639
-0.0751486504735823 0.408898712662845 0.181477583623218
-0.259468422639064 0.0474272526971778 0.0769733485695423
-0.147156540747827 -0.0532403669513702 0.0666471811612468
0.144292148675375 0.181227438022625 -0.00277118732479779
0.033247784515452 -0.0476063978188535 -0.0888738849427213
-0.12959572870284 0.341154284655045 0.194556140966942
0.0985040859320831 -0.541942917797939 -0.0816917772862582
-0.0974796514664223 -0.225975746236287 -0.0643095921634615
0.110543514894535 0.401144840996932 0.135677305293407
0.0343656200390589 0.489715397894187 0.0164994491862504
0.137246587400574 -0.0598154020385478 0.00546490737213158
0.0468288082107078 -0.458924454351081 -0.0199737337386749
0.0954057515077741 -0.633521671825883 -0.072211654160243
-0.171009604342511 0.310452210203394 0.160369094386882
0.0151242572981913 0.5560123159249 0.168370163675592
-0.155115243996582 -0.119550282822558 0.00275170413231933
0.0813296300408718 0.365286339753134 0.159521009290593
0.00255470968284516 -0.158729330583638 0.0694063434026824
-0.293982542564859 0.0224762456006399 0.0426859956297723
-0.0635834866343672 0.0496138826905081 0.128143312744907
-0.201762095720066 0.153437185508954 0.0904904156981873
-0.341807026204363 -0.0412374866709697 -0.0218855032581773
0.0950322704701612 0.215149759794958 0.12476785686196
0.130420491541026 0.563510579593349 0.104368941723354
-0.0963711251041089 0.943674996297512 -0.302925036861489
-0.0801158193115693 -0.772845695953135 -0.00516244702026916
-0.0936381110845681 0.401692862721065 0.0725355395220937
0.189971341971712 0.203497318028571 0.02023085225448
0.215368957437232 -0.0773451771039036 -0.143353922481532
-0.375853759456315 -0.0312709417619358 -0.0602047208577919
-0.0379601162793886 0.208434997987191 0.15787440366955
-0.13737329295074 -0.482178265639024 0.0301998049873563
0.0243936291237414 0.568491247178777 0.195718931851156
0.0741504479362864 0.559864189313879 0.219152082604976
0.125037729819583 0.0509634899907428 -0.0430105061828844
0.0109264740087637 0.540137804664728 0.141068577499956
-0.235535387635726 0.0721569775460451 0.112672413955464
-0.0886106856774556 0.253497368624045 0.126443177265885
0.160061453034253 -0.83196057909921 -0.0803185734448432
0.10515553047534 -0.130105135088283 0.077522985192861
0.0735267151095454 0.58697788017932 0.0370110720526734
-0.217928702791982 0.0809452510259079 0.114792389911982
-0.0315522875486763 -0.143866323408764 -0.0527023813534488
-0.123159239273529 -0.0374238359206564 -0.0140951045390361
0.133106560838151 -0.307088531945668 -0.0538052540836888
-0.278324487515533 0.0729177323367868 0.0887376968352586
-0.118784390915783 -0.272547632037985 0.0884704528485376
0.09384507486951 -0.794263867857245 -0.0391371185860882
0.207717247125872 -0.14930942138982 -0.173607467706314
0.144952123212675 -0.633772635941153 -0.0475280772741304
0.0993399025000441 0.517105734420489 0.0632217798607363
-0.288481255473245 0.0733261923504255 0.0239042135024124
-0.0775535798740969 -0.498855493883369 -0.0317567433793346
0.153556164797575 0.301083408612777 0.114270383946568
-0.123514679519684 -0.594632205628061 0.0266447361117074
-0.15706389104512 -0.577712993369423 -0.0298993817306354
0.05408332890851 -0.0149440073107053 -0.0821354660526446
-0.147313050118642 -0.728784288783958 -0.0634783588294223
-0.0414416778828905 0.135539498942045 -0.0615396357175646
-0.107528323020514 0.0403826114772169 0.0985203309101651
-0.126635044196568 0.809741533444084 -0.319506434699264
-0.0184681331971505 -0.223038110001955 0.015891090147472
