0.10876 -0.0032953 -0.10432
0.13459 0.346 -0.227
-0.6713 -0.46039 0.32641
-0.1968 -0.048113 0.13434
-0.27551 -0.21589 0.39103
-0.16451 -0.24672 0.23114
-0.1322 -0.13368 0.10176
0.28103 0.10224 -0.062124
0.006665 0.18239 -0.12005
-0.019322 -0.013446 0.17608
-0.080852 0.18415 -0.165
-0.095267 -0.095573 0.25615
0.67501 0.099997 -0.65654
0.25172 0.14813 0.056374
0.18838 0.051712 -0.14867
-0.41126 -0.19898 0.24002
-0.086917 0.058714 -0.099361
-0.45925 -0.43476 0.50335
-0.02471 0.20666 -0.24212
-0.38542 -0.27663 0.20798
0.1439 0.071355 0.058692
0.1607 0.27311 -0.29572
-0.24824 -0.036661 -0.24391
0.22197 -0.0013046 0.2007
-0.070384 -0.1773 0.1012
-0.23141 -0.15158 0.0095973
-0.36828 -0.27537 0.39501
-0.44926 -0.34504 0.5329
0.10391 0.21336 -0.23219
-0.372 -0.17459 0.11983
0.21678 0.14165 0.017538
-0.2036 0.026644 0.046891
0.38804 0.16827 -0.046667
-0.26843 -0.30265 0.33565
-0.61044 -0.45651 0.29731
-0.16112 0.0089487 -0.23487
-0.067067 0.11762 0.051648
0.054403 0.16628 -0.20143
-0.13191 0.028641 0.11658
0.26223 0.19748 -0.22739
0.32521 0.15306 0.098472
-0.18773 -0.15157 0.29058
-0.1885 -0.095544 -0.037186
-0.15251 -0.091722 0.13676
0.18399 0.018003 -0.031723
0.16843 0.28161 -0.086452
-0.35418 -0.36073 0.48899
0.26927 0.30485 -0.085266
0.58912 0.21134 -0.71144
0.32746 0.44098 -0.20456
-0.11231 0.0093568 -0.086623
0.58346 0.094681 -0.61604
-0.43092 -0.49001 0.56994
0.056284 0.091118 0.080406
0.3243 0.39214 -0.27092
0.67122 0.2336 -0.68179
0.21582 0.3403 -0.20127
0.16534 -0.068695 0.20963
-0.49949 -0.34466 0.31583
-0.26409 -0.2396 0.28243
0.54123 0.19776 -0.61488
0.099812 0.28975 -0.14484
-0.262 -0.29644 0.41643
0.12889 0.15724 -0.25115
0.28624 0.1893 0.030146
-0.18757 -0.089658 -0.29657
0.23497 0.11972 -0.20891
0.071341 -0.21103 0.22491
0.66445 0.13858 -0.57021
-0.094905 0.18736 -0.21687
-0.22441 -0.18544 0.23898
-0.6 -0.34975 0.31816
-0.011101 0.14198 -0.14535
0.26925 0.0080403 0.13221
0.17282 0.20546 -0.0066493
0.37625 0.33193 -0.17436
0.055203 -0.064907 -0.014195
-0.29918 -0.085018 0.09452
-0.032305 -0.17365 0.15005
0.099967 0.16191 0.019158
0.33312 0.12664 -0.048329
0.037734 -0.034107 0.14871
0.037511 0.0089352 -0.13282
0.30275 0.34852 -0.16656
0.46812 0.36621 -0.2521
-0.4042 -0.3924 0.54953
0.32083 0.43647 -0.23566
0.032692 0.20137 -0.0642
-0.44643 -0.32429 0.23598
-0.08548 -0.1263 0.032401
-0.055182 0.13334 -0.024924
-0.12043 -0.21983 0.18127
0.12879 0.031501 0.073202
0.017113 -0.12336 0.10358
-0.28619 -0.18531 0.15797
-0.065847 0.11519 -0.21562
0.39781 0.2885 -0.2837
-0.15893 0.082023 0.043567
0.23804 0.085606 0.12272
-0.1498 -0.11124 0.082457
0.42982 0.40085 -0.31782
0.074879 0.32038 -0.21474
0.6009 0.14165 -0.72381
-0.61403 -0.48655 0.31477
0.10066 -0.2044 0.24784
-0.32869 -0.27647 0.45579
-0.35694 -0.34632 0.40917
-0.059671 0.050954 0.15653
0.34572 0.11095 0.034965
-0.40286 -0.23465 0.26677
-0.085814 -0.0044913 -0.094053
-0.16421 -0.072125 0.22989
-0.35024 -0.24533 0.38699
-0.42007 -0.38213 0.47347
0.19811 0.22732 -0.019736
-0.51262 -0.47332 0.52851
-0.30113 -0.072508 0.044284
0.29025 0.31005 -0.23307
-0.35622 -0.14949 0.15269
-0.075693 0.087257 0.10731
-0.46284 -0.30368 0.1946
-0.48134 -0.2436 0.24232
-0.57776 -0.38204 0.37951
0.39684 0.46423 -0.19492
-0.13561 -0.057826 0.12416
-0.1763 0.052617 -0.25516
-0.028021 -0.084296 -0.037957
0.037271 -0.10225 0.071191
-0.069263 -0.038983 0.20605
0.13462 -0.12567 0.16865
0.011375 0.27937 -0.21473
-0.16987 -0.17348 0.16437
0.14992 -0.17567 0.18815
0.17322 0.045015 0.037868
-0.64547 -0.40697 0.30786
-0.57877 -0.42699 0.32898
0.69929 0.17125 -0.67956
0.43572 0.3787 -0.18451
-0.36408 -0.25817 0.14822
0.18909 0.21585 -0.26503
-0.23195 -0.18798 0.071098
0.33097 0.28768 -0.12679
0.60346 0.093459 -0.68682
0.54523 0.13321 -0.60825
0.26474 0.085126 -0.14821
-0.42526 -0.36126 0.5611
0.21195 0.02174 0.12603
-0.13688 0.045463 -0.071846
-0.063252 -0.17579 0.21961
0.048047 0.0338 0.12574
0.37063 0.21993 -0.013679
-0.24541 -0.0025706 0.045566
0.12983 -0.026697 -0.019552
-0.040537 -0.13158 0.22832
-0.41152 -0.19606 0.16507
0.35321 0.2777 -0.24681
0.35191 0.33806 -0.30657
-0.056034 0.10631 -0.12676
0.643 0.2142 -0.5671
0.1072 0.31661 -0.28763
0.050046 0.055455 -0.16907
0.37456 0.37498 -0.31265
-0.24144 -0.19022 0.34461
-0.45924 -0.49996 0.51232
0.28968 0.35292 -0.19521
-0.22331 -0.11843 -0.29925
0.18296 0.32827 -0.14122
-0.10321 0.1044 -0.18414
0.18344 -0.10378 0.19212
0.019842 0.034636 0.14478
0.20212 0.29157 -0.088265
-0.15773 -0.12798 0.27194
0.073107 0.24473 -0.10438
-0.44947 -0.52534 0.57873
0.035626 0.19867 -0.25934
0.30463 0.23791 -0.015395
0.26036 0.17961 0.0085197
0.65676 0.25141 -0.61965
0.31711 0.20528 -0.18252
0.035259 0.09096 -0.17939
-0.13662 -0.21685 0.28168
0.41654 0.31138 -0.27814
0.060628 0.18709 -0.022429
-0.25913 -0.094415 -0.2386
-0.22582 -0.011179 -0.25834
-0.28232 -0.14392 0.018472
-0.22266 -0.037687 -0.28958
-0.18595 -0.15893 0.070581
0.12181 0.042992 -0.16123
-0.051728 0.22846 -0.18671
0.077885 0.12088 0.067818
0.54378 0.1968 -0.67729
-0.16148 -0.041919 -0.060413
0.24074 0.052761 -0.053588
-0.13152 -0.1811 0.12206
0.12272 0.22395 -0.27718
0.25862 0.037999 0.18617
-0.33997 -0.19436 0.079418
-0.23907 -0.2804 0.38416
-0.1632 0.067635 -0.022496
-0.23543 -0.1297 -0.011416
-0.016634 0.17505 -0.18121
0.31464 0.12776 -0.10039
-0.2074 -0.27162 0.27805
-0.039689 -0.090773 0.22229
0.28499 0.077482 0.030172
-0.090988 0.11993 0.027564
0.21354 0.043848 0.1548
-0.27258 -0.11853 0.15279
0.27976 0.13431 0.10967
0.22458 0.074651 -0.0060831
0.17261 0.083021 -0.2027
-0.38669 -0.34952 0.51022
0.077035 0.15978 -0.22086
-0.26921 -0.026692 0.05162
-0.50954 -0.29175 0.30237
-0.2411 -0.090361 0.14557
-0.15999 0.064017 -0.20941
-0.49043 -0.34874 0.25508
-0.10916 0.13595 -0.24876
0.31991 0.26153 -0.26216
0.59103 0.23775 -0.59007
0.030054 -0.057782 -0.046252
-0.6354 -0.48201 0.35934
-0.64108 -0.4008 0.35687
0.34867 0.16195 -0.11166
-0.11296 -0.10797 -0.027167
0.59692 0.13143 -0.56278
0.28242 0.24739 -0.2219
-0.49522 -0.4838 0.54514
0.3432 0.11257 0.0028933
-0.58919 -0.33679 0.3492
-0.024828 0.0042752 -0.12701
0.074757 0.21245 -0.18997
-0.20389 0.0018163 0.10233
0.67755 0.10237 -0.61622
0.70752 0.15836 -0.62192
0.2898 0.26844 -0.040373
0.23487 0.24406 -0.25087
0.14792 0.33337 -0.17176
-0.074821 0.12313 -0.083371
-0.11353 0.048229 -0.086615
0.32415 0.28872 -0.089601
-0.32101 -0.12471 0.060613
-0.14818 -0.0045766 0.12222
-0.12749 -0.16739 0.10755
-0.38729 -0.22422 0.12379
-0.013332 -0.06386 0.19175
0.015653 0.19834 -0.17059
0.24184 -0.037487 0.17811
-0.054186 -0.18885 0.1447
-0.30395 -0.20633 0.066384
0.10066 -0.055053 -0.014808
0.32872 0.17872 0.065974
-0.41926 -0.4489 0.55791
-0.21497 -0.038708 -0.033318
-0.53617 -0.38437 0.31395
-0.099691 -0.21445 0.23447
0.40519 0.30471 -0.20903
-0.11977 -0.072181 0.088154
0.296 0.059537 0.14195
0.12043 -0.21463 0.20141
0.21814 0.16432 -0.23967
0.17067 0.15862 0.025554
0.11755 0.19511 -0.011844
0.39981 0.41397 -0.15764
0.41394 0.46784 -0.23142
0.17209 0.33117 -0.26456
-0.02383 0.2625 -0.21993
-0.22569 -0.23142 0.36642
-0.0093449 0.11543 0.051524
-0.59782 -0.38254 0.28584
0.25401 0.10202 0.069186
-0.66267 -0.49 0.28263
0.15837 0.24263 -0.051927
-0.37775 -0.17873 0.20039
-0.42817 -0.29355 0.17616
0.17629 -0.035273 0.17845
-0.30821 -0.23909 0.42669
-0.34783 -0.23158 0.20243
-0.013482 0.16924 -0.097763
0.46121 0.41341 -0.27148
0.15406 0.017887 -0.11705
-0.45822 -0.21841 0.20164
-0.16895 -0.12088 0.14641
-0.48274 -0.32085 0.31157
-0.038513 -0.15301 0.073106
-0.0073611 0.15985 -0.0099519
-0.55464 -0.32117 0.297
0.38717 0.22173 -0.062367
0.18231 0.01695 -0.08207
-0.4147 -0.29499 0.26216
-0.29888 -0.32559 0.36984
0.020545 0.16137 -0.17118
-0.06245 -0.0098655 0.18487
-0.28206 -0.21226 0.32879
-0.17387 -0.19508 0.31084
-0.19836 -0.16052 0.018637
-0.19583 -0.025552 -0.23449
0.091279 0.29409 -0.29558
-0.25122 -0.071837 -0.28451
0.10034 0.01715 -0.13737
0.046299 -0.078966 0.12759
0.30577 0.34813 -0.24758
0.37986 0.17344 0.0024554
-0.33019 -0.35425 0.45429
-0.25107 -0.28261 0.30934
-0.21553 -0.24573 0.24527
-0.19485 -0.09536 0.1435
0.26107 0.064349 -0.1018
0.33802 0.24806 -0.15616
0.078173 0.27735 -0.16877
0.60088 0.24185 -0.69522
-0.12074 0.095169 -0.25387
0.63124 0.16356 -0.55299
0.33635 0.096468 0.079877
-0.34333 -0.13958 0.105
0.038261 0.21819 -0.14339
-0.23147 -0.086942 -0.027632
-0.48257 -0.38234 0.53417
0.70496 0.19901 -0.66835
-0.19931 -0.20795 0.20439
0.13665 -0.10847 0.21876
-0.1257 -0.045232 0.21472
-0.14456 -0.048298 0.1844
0.15651 -0.00019568 0.015769
0.63435 0.20273 -0.72473
-0.43675 -0.40025 0.5872
-0.18349 -0.13577 0.11012
-0.22506 0.0010494 7.9332e-06
-0.054641 -0.11147 -0.012612
0.13951 0.099352 -0.21309
0.12908 0.14925 0.035043
-0.31076 -0.27271 0.33891
0.11475 -0.14562 0.17958
-0.015629 -0.14826 0.18825
0.23637 0.33437 -0.15318
0.0086448 0.23867 -0.26364
-0.19744 0.024974 -0.23902
-0.10814 -0.13491 0.25966
0.64664 0.11197 -0.70687
0.10165 0.0776 0.083633
0.025069 0.13257 -0.1816
0.16017 -0.086135 0.16885
0.25656 0.11633 0.020079
0.015335 0.071761 0.12182
0.20612 -0.077253 0.19493
0.38007 0.37139 -0.15522
-0.098757 -0.1488 0.070125
-0.18772 0.046835 0.029759
0.30666 0.40651 -0.21963
-0.19915 -0.13212 0.24446
0.038034 -0.087439 0.023601
0.20843 0.26871 -0.054918
-0.36573 -0.30994 0.47954
-0.11527 0.15061 -0.17936
0.45802 0.38764 -0.20391
-0.20258 -0.15882 0.21103
-0.49488 -0.4371 0.54364
0.050049 -0.016877 -0.11107
-0.51068 -0.5228 0.51967
-0.16305 0.08856 -0.24319
0.45419 0.3368 -0.28213
0.26532 0.047703 0.1018
0.34208 0.18647 -0.1477
-0.1184 0.08856 0.088756
0.00061042 0.012073 0.16411
0.63911 0.25214 -0.66598
-0.28042 -0.11288 0.0046064
0.30504 0.10879 0.13197
-0.071579 0.19992 -0.22199
0.088704 0.038816 0.097904
-0.13266 0.076748 -0.1995
0.19453 0.0073931 0.165
-0.079335 0.15122 -0.24194
-0.48225 -0.25994 0.19647
-0.24772 -0.18201 0.31131
0.030531 -0.040908 -0.087893
0.59072 0.085965 -0.66434
-0.45605 -0.38323 0.50807
0.21617 0.32637 -0.23949
0.35787 0.46712 -0.24439
-0.0026367 -0.14204 0.13198
-0.18421 -0.061309 -0.28186
0.25203 0.14443 -0.21252
0.58449 0.16527 -0.72335
-0.3589 -0.31145 0.38837
-0.056454 -0.044006 -0.07588
0.64408 0.089452 -0.66463
0.24928 0.11309 -0.0066484
2.7541e-05 0.17549 -0.04223
-0.43653 -0.46566 0.5057
-0.27935 -0.041557 0.09639
0.21319 0.075502 -0.18006
0.37949 0.17919 -0.080851
-0.37813 -0.37076 0.44194
0.27789 0.1128 -0.16741
-0.37496 -0.40117 0.49074
0.11363 -0.0022882 0.074269
-0.076254 -0.13747 0.25857
-0.17112 -0.075163 0.1761
0.11439 0.25182 -0.081041
0.021307 0.031673 -0.14767
-0.38705 -0.29551 0.43079
-0.60527 -0.45109 0.35309
-0.01774 0.055241 0.15188
0.53028 0.16541 -0.64802
-0.087274 0.11503 -0.026987
-0.11114 0.072554 0.11163
-0.27229 -0.21207 0.10815
-0.53687 -0.3491 0.2553
0.10655 0.19201 -0.24606
0.36225 0.30019 -0.18443
-0.15538 -0.13186 0.06516
-0.14971 -0.073707 -0.051968
-0.1699 -0.25447 0.28377
-0.30633 -0.15648 0.16865
0.18091 0.1832 -0.25988
0.44916 0.34121 -0.23994
0.67238 0.18969 -0.57415
-0.20326 -0.20273 0.33715
0.54995 0.18944 -0.58946
-0.040818 0.13035 0.015939
-0.065418 0.14605 -0.17687
-0.42625 -0.34722 0.48379
0.21875 0.19819 0.0040102
0.36666 0.41995 -0.30062
0.28772 0.16778 0.079878
-0.10336 0.087065 -0.066805
0.012363 0.17652 -0.2185
0.023293 -0.10376 0.14564
-0.19941 -0.14148 -0.0064645
0.56339 0.19655 -0.70052
-0.61259 -0.37757 0.38271
0.1099 0.26127 -0.2956
0.079388 0.327 -0.25973
-0.32206 -0.31114 0.46144
0.63653 0.25015 -0.5998
0.29641 0.094639 -0.1168
0.33552 0.21015 0.020587
0.10559 0.31505 -0.18588
0.62028 0.117 -0.57168
0.46506 0.37861 -0.29098
0.26423 0.27916 -0.23036
0.35972 0.44583 -0.17677
0.18113 0.34295 -0.18606
-0.029936 -0.16172 0.10684
-0.1154 -0.034232 -0.076
0.6751 0.1991 -0.70768
0.18098 0.075917 0.03159
-0.26862 -0.23809 0.41604
0.12713 -0.17411 0.22276
-0.19237 0.034888 -0.0075079
-0.44992 -0.22484 0.2673
-0.45626 -0.37627 0.57333
-0.11606 -0.10119 0.05281
0.14444 -0.0099168 -0.053396
-0.10338 0.023116 0.15189
-0.39152 -0.40381 0.5254
0.26987 0.22616 -0.011351
-0.12507 -0.014363 0.13337
-0.4532 -0.45196 0.58266
0.060758 0.15366 0.028843
0.093853 -0.2132 0.17954
0.69733 0.1256 -0.66834
0.0068136 0.099685 0.079415
-0.080458 0.10331 -0.24007
-0.042501 0.15239 -0.050556
0.081323 0.2184 -0.26896
0.56443 0.23407 -0.62355
0.40731 0.34769 -0.17928
0.39858 0.3205 -0.30291
0.18406 0.12125 -0.23297
0.076095 -0.065548 0.030058
0.34065 0.1427 0.081538
-0.010569 0.25232 -0.24501
0.39947 0.43548 -0.30576
-0.22445 -0.27978 0.34412
0.12788 0.34326 -0.26713
-0.19494 -0.062702 -0.042918
-0.61811 -0.41861 0.28377
0.14652 0.31148 -0.29473
0.19342 0.26432 -0.27806
-0.15212 0.028591 -0.26127
0.37112 0.1365 -0.028882
0.22368 0.32159 -0.1187
0.0025387 -0.12476 0.063157
-0.18368 -0.10908 0.23536
0.13832 -0.0094617 0.040702
-0.14147 -0.23186 0.19888
-0.12228 0.10928 0.04094
-0.32912 -0.15377 0.06039
0.41768 0.44002 -0.17721
-0.3575 -0.26175 0.43399
0.23302 -0.015367 0.13088
0.36129 0.25169 -0.23798
-0.63384 -0.36603 0.33614
-0.51093 -0.36476 0.28332
-0.029649 0.10755 -0.14387
-0.2554 -0.035601 0.0049495
0.060398 -0.078741 0.050928
0.56581 0.23624 -0.66659
-0.12254 -0.074326 0.24394
0.64974 0.10303 -0.58431
-0.61499 -0.41141 0.3803
-0.31074 -0.21467 0.37222
0.36659 0.24869 -0.08221
-0.26387 -0.17825 0.035654
0.067022 0.22411 -0.074624
0.20536 0.028652 -0.049381
0.40851 0.2816 -0.24399
-0.14111 0.092853 0.0070461
-0.046022 0.0771 0.12826
-0.097402 -0.19179 0.12493
0.092498 0.056565 -0.17961
-0.45569 -0.54109 0.53652
0.29806 0.17352 -0.19004
0.1618 0.059237 -0.16931
-0.4134 -0.30329 0.21463
0.0024113 -0.029044 0.1718
0.3602 0.28218 -0.28522
0.022039 -0.069024 0.16527
-0.052466 -0.19304 0.17639
0.44379 0.44047 -0.25014
-0.32008 -0.23692 0.14797
-0.35226 -0.24011 0.099694
0.33578 0.42676 -0.27242
-0.088776 -0.11344 -0.012295
0.047775 0.11714 -0.1988
-0.17988 0.051399 0.063717
0.19942 -0.039848 0.20946
0.33238 0.1393 -0.12229
-0.31853 -0.34286 0.39571
-0.17235 0.036805 -0.043326
-0.39043 -0.28015 0.17469
0.015401 -0.084111 -0.0097409
-0.57238 -0.34904 0.28838
0.57333 0.1175 -0.69804
-0.15719 -0.012649 -0.064873
-0.092037 0.055681 0.13429
-0.11729 -0.12744 0.0064983
0.18948 0.11647 0.02979
-0.15832 -0.1502 0.13343
-0.14264 -0.19398 0.15196
-0.43034 -0.19672 0.20969
-0.48268 -0.33028 0.22292
-0.63071 -0.51325 0.33855
-0.48165 -0.46975 0.50789
-0.056695 0.016392 -0.11318
-0.15107 -0.12126 -0.020908
0.62489 0.26094 -0.64209
0.31168 0.2679 -0.23082
0.040159 0.22181 -0.10044
0.37284 0.14398 0.0031603
-0.45746 -0.32073 0.2872
0.16716 0.34699 -0.22383
0.25509 0.11387 0.11586
0.24845 0.32645 -0.21275
-0.28403 -0.26041 0.31636
-0.4777 -0.25451 0.28201
0.68729 0.22493 -0.62272
-0.38021 -0.25964 0.2356
-0.046613 0.20536 -0.16109
0.065546 0.13176 -0.21376
-0.36976 -0.21583 0.2247
0.036279 0.10717 0.05831
-0.22349 -0.05689 -0.26423
0.16599 -0.12968 0.18987
0.26959 0.1711 0.061161
0.57056 0.11464 -0.59192
-0.26033 -0.15677 0.15298
-0.40857 -0.35109 0.45231
-0.28247 -0.079611 0.0085482
0.54908 0.12481 -0.65194
-0.15588 -0.080601 0.10897
0.27268 0.33433 -0.16589
0.15584 -0.0030086 -0.0057998
-0.23075 -0.17934 0.10365
0.025566 0.27189 -0.25579
0.0071008 -0.014726 -0.11808
-0.37042 -0.20773 0.10118
-0.067228 0.068822 -0.12087
0.24072 0.062872 -0.13799
0.24089 0.28814 -0.065231
0.68489 0.14418 -0.70187
0.13008 0.070225 -0.18938
-0.43901 -0.40307 0.49293
-0.4338 -0.49589 0.53355
-0.67289 -0.41255 0.32261
0.70435 0.13323 -0.63397
-0.12841 -0.23134 0.25365
0.063094 0.25003 -0.14623
-0.029045 0.10444 0.081434
0.23493 0.19918 -0.24561
-0.28831 -0.28183 0.43999
0.38399 0.47286 -0.22459
0.062247 -0.066573 0.10648
-0.13522 0.035695 -0.22698
0.11204 -0.028991 -0.053399
0.69298 0.15839 -0.58295
0.155 0.21728 -0.27811
0.28092 0.1598 -0.0092236
0.25556 0.092091 -0.036368
-0.4073 -0.42116 0.48253
-0.39227 -0.18859 0.14557
-0.41021 -0.24499 0.14524
-0.25331 -0.055103 0.13001
-0.038129 -0.12208 0.016563
-0.24754 -0.099215 -0.27701
-0.6875 -0.46143 0.29687
0.10376 0.1116 0.065031
-0.5541 -0.38202 0.35109
0.35251 0.1428 -0.071359
0.12308 -0.16946 0.19436
0.027257 0.17516 -0.019709
-0.49812 -0.28884 0.21533
-0.057374 -0.070262 -0.052386
-0.56461 -0.41154 0.29973
0.56174 0.14612 -0.57692
-0.33778 -0.16749 0.18461
0.37152 0.27146 -0.21075
-0.048323 0.14729 -0.20392
-0.14458 -0.15804 0.28607
-0.21602 -0.17464 0.32134
-0.11506 0.15987 -0.22971
-0.32561 -0.13251 0.14844
0.12788 -0.033877 0.015153
-0.14827 0.075533 0.085696
-0.023781 0.25961 -0.18543
-0.1862 -0.038399 -0.29386
-0.065054 -0.14879 0.052988
-0.069596 -0.074469 0.23314
-0.13387 0.084479 -0.037269
0.13003 -0.1796 0.24761
0.16202 0.30514 -0.11316
0.22392 0.040135 0.18393
-0.38631 -0.33545 0.42511
0.34681 0.24426 -0.024172
-0.20132 -0.14879 0.096527
-0.16782 -0.20806 0.17743
-0.08672 -0.21033 0.20117
-0.47669 -0.53913 0.52006
0.0036872 0.089688 -0.16222
0.19798 -0.015054 0.13358
0.084743 -0.055097 -0.039153
0.14272 0.24163 -0.28943
-0.63508 -0.48033 0.2916
0.64767 0.083576 -0.63192
-0.048401 0.046177 -0.13527
-0.26682 -0.31632 0.37874
0.3124 0.081743 0.056856
0.30771 0.2402 -0.20067
0.33779 0.35343 -0.15746
0.1846 0.035009 0.013252
0.3075 0.31703 -0.15006
0.00024095 0.12804 0.022161
-0.22797 -0.16259 0.26675
0.24845 0.098009 -0.18071
-0.50477 -0.27121 0.24245
0.57229 0.21313 -0.58198
0.034717 0.0011441 0.14566
-0.58315 -0.35728 0.39089
-0.0025618 0.19405 -0.257
-0.087052 0.086096 -0.21413
-0.28645 -0.085887 0.12351
-0.13332 0.062181 -0.25705
-0.092448 -0.18504 0.25039
0.35218 0.46505 -0.21497
0.26717 7.1843e-05 0.16569
0.30957 0.1147 -0.028815
-0.42363 -0.34433 0.54029
0.23096 0.05701 0.11803
0.14904 0.0045817 -0.088375
0.18788 0.026093 -0.10946
-0.11943 -0.11312 0.075878
0.28247 0.14351 -0.18583
-0.038718 0.2288 -0.21818
-0.44588 -0.21052 0.23807
-0.23084 -0.070203 0.15569
0.17797 -0.039482 0.15192
-0.33682 -0.2848 0.36008
-0.52354 -0.29238 0.27114
-0.36348 -0.26323 0.18141
0.31356 0.31713 -0.27007
-0.17551 0.023775 0.10469
0.14288 0.31734 -0.14578
-0.032436 0.019695 0.17456
0.30136 0.18638 0.06206
0.083576 0.24597 -0.19714
-0.095158 -0.016771 0.18989
-0.25996 -0.12586 -0.2518
0.062941 0.20679 -0.052561
0.32909 0.25947 -0.032785
0.28629 0.10071 0.1614
-0.24272 -0.24556 0.39377
0.67717 0.23995 -0.64501
0.42077 0.45488 -0.26267
-0.42846 -0.29794 0.28245
0.62027 0.17423 -0.72979
0.28429 0.33635 -0.22089
-0.23642 -0.086221 -0.30619
-0.039529 -0.062674 0.21326
-0.10503 0.18317 -0.1831
-0.45583 -0.34166 0.56267
-0.097619 0.11223 0.061934
0.21287 0.033123 -0.084032
0.096979 0.26653 -0.11564
-0.080387 0.21262 -0.18185
-0.14134 -0.096288 0.24549
-0.4712 -0.41502 0.52056
-0.31282 -0.148 0.041876
-0.47618 -0.28939 0.30411
0.68719 0.12837 -0.59735
0.64042 0.13626 -0.72033
0.10999 0.33591 -0.21261
0.2041 0.095134 0.018305
-0.15153 -0.059924 0.15583
-0.077148 0.093213 -0.10067
-0.012219 -0.1432 0.087941
0.128 -0.20351 0.22322
0.00068622 0.0073885 -0.13413
-0.029423 0.14396 -0.11513
0.6028 0.21492 -0.568
-0.083907 -0.15294 0.24798
0.30369 0.30618 -0.11836
0.29068 0.095901 0.0087804
-0.35064 -0.19829 0.20881
0.44024 0.35741 -0.20905
-0.084139 -0.20427 0.14797
-0.19389 -0.23386 0.22063
-0.29675 -0.21617 0.14298
0.46693 0.41116 -0.24391
-0.25725 -0.19989 0.075506
0.35844 0.24862 -0.11331
-0.2748 -0.20245 0.36128
0.036862 0.23686 -0.26906
0.12815 -0.14649 0.20286
0.0329 0.28612 -0.1903
-0.2558 -0.066157 -0.25629
0.21224 0.13376 -0.2268
0.60817 0.24993 -0.61409
-0.09411 0.12874 -0.1709
0.30146 0.21198 0.0063677
-0.17754 -0.10495 0.11932
-0.34937 -0.16601 0.088668
0.44427 0.31807 -0.26606
0.35938 0.13868 0.033324
-0.1885 -0.18544 0.18632
0.35927 0.3028 -0.29918
0.16305 0.11238 0.0409
-0.18033 -0.080164 0.20742
-0.1095 0.061415 -0.21886
0.2236 0.30602 -0.096661
0.30377 0.11962 -0.14276
0.16435 -0.1454 0.20451
-0.4727 -0.47063 0.56565
0.18412 0.18436 0.0081478
0.24705 0.022887 0.11382
0.54559 0.16339 -0.68953
0.25926 0.12931 0.081388
-0.39706 -0.37323 0.53287
0.24825 0.08651 0.095156
0.036051 0.18475 -0.19001
-0.56999 -0.33727 0.3153
0.069891 0.19903 -0.24586
-0.29755 -0.119 0.033
0.44148 0.42538 -0.18665
0.33528 0.21311 -0.16212
0.12675 -0.15192 0.15384
-0.46429 -0.49608 0.57409
-0.30302 -0.093822 0.063802
0.38078 0.20859 -0.09119
0.38832 0.44188 -0.16691
0.073443 -0.00065346 -0.12277
-0.27315 -0.044373 0.028181
0.39115 0.34571 -0.32066
0.33219 0.248 -0.2414
-0.067411 0.10683 0.076522
0.70803 0.16033 -0.65364
0.32811 0.089759 0.035707
0.081315 0.19471 -0.21774
-0.42322 -0.21734 0.15294
0.1491 0.18514 -0.26624
-0.66844 -0.43424 0.2991
-0.21409 0.011177 0.073621
0.33697 0.27393 -0.17974
0.13372 0.27388 -0.092751
-0.012639 -0.11941 0.19546
0.25829 0.22584 -0.23875
-0.042966 -0.17755 0.20696
-0.48845 -0.50019 0.50509
0.079889 -0.00062794 0.10522
-0.65155 -0.42989 0.3467
0.040348 0.18204 -0.23166
0.21512 0.16829 0.010642
0.30732 0.28914 -0.25588
-0.39899 -0.26705 0.26436
-0.18844 0.02274 -0.26387
0.1587 0.020891 0.039178
-0.23516 -0.2212 0.25343
-0.16943 -0.22257 0.19513
0.28659 0.034098 0.12205
-0.48404 -0.40602 0.55102
0.29517 0.36736 -0.22562
-0.13964 0.1087 -0.19353
-0.32354 -0.22828 0.18282
-0.044365 -0.034929 0.19251
-0.21228 -0.25489 0.35187
0.13893 0.1691 0.016714
-0.32486 -0.22931 0.41294
0.2275 0.22027 -0.0092876
0.054825 0.23039 -0.16823
0.45186 0.36478 -0.31202
-0.07803 0.12456 0.0001486
0.28866 0.2083 -0.21212
-0.28928 -0.056619 0.071053
-0.33711 -0.24836 0.35602
0.5445 0.16031 -0.59989
-0.067411 0.017379 0.17352
-0.17601 -0.10148 0.16482
0.0019665 -0.056932 -0.055531
-0.4783 -0.35825 0.54172
-0.21516 -0.073946 -0.29928
0.30815 0.085735 0.11437
-0.1826 -0.12229 -0.024789
0.31848 0.11858 0.10842
-0.0076611 -0.098554 -0.0022953
-0.52941 -0.31207 0.31618
0.19407 -0.013392 0.19607
0.30038 0.13054 -0.054798
0.097278 -0.21779 0.21638
0.33357 0.35245 -0.2878
-0.24166 -0.25918 0.27831
0.37435 0.23455 -0.038531
0.27471 0.075414 0.075129
-0.16957 0.066903 0.016341
-0.042189 0.17302 -0.16996
0.015873 0.18115 -0.1461
0.050565 0.059581 0.10794
-0.20937 -0.27283 0.31614
0.24511 0.30104 -0.23516
-0.3476 -0.3707 0.44902
-0.14302 0.017721 -0.072467
0.058912 0.081456 -0.18866
0.70037 0.20609 -0.64083
-0.25225 -0.10116 -0.015882
-0.19949 -0.0025029 -0.272
-0.55722 -0.34759 0.35574
-0.53787 -0.3144 0.26253
0.10325 0.15365 -0.24106
0.12413 -0.010701 -0.079965
-0.42087 -0.47632 0.54751
0.65845 0.17621 -0.55843
-0.053646 0.16134 -0.23173
0.3306 0.28043 -0.27784
0.16031 0.038995 -0.14446
0.096589 0.13583 0.051773
-0.37546 -0.16459 0.16629
-0.56022 -0.40411 0.32772
-0.17665 0.026039 -0.22252
-0.2957 -0.29558 0.3344
0.21053 0.24228 -0.26764
0.27722 0.14624 -0.026929
0.1328 -0.20072 0.18474
0.16047 -0.061686 0.17757
0.35986 0.25749 -0.26674
0.11164 0.112 -0.2202
-0.22779 -0.014488 0.11228
-0.17684 -0.13167 0.080319
-0.25042 -0.21481 0.37214
-0.50249 -0.27205 0.27795
-0.59381 -0.45059 0.32192
0.16399 -0.11138 0.22924
-0.12045 -0.20219 0.14211
0.61821 0.07887 -0.632
-0.00070959 0.21564 -0.17328
0.66833 0.2206 -0.58084
-0.68856 -0.49465 0.29316
0.25984 0.25901 -0.032442
0.229 0.26616 -0.26014
0.056238 -0.081924 0.080887
-0.13934 -0.09951 -0.039682
0.17836 0.26329 -0.064308
0.62147 0.18974 -0.5539
0.36143 0.19769 0.018914
0.25551 0.14213 -0.0030162
-0.44875 -0.24784 0.28455
0.32007 0.2795 -0.061635
0.021406 0.060319 -0.16062
-0.29785 -0.10943 0.14314
-0.13438 -0.051797 -0.065309
-0.28191 -0.22529 0.30835
-0.17763 -0.25775 0.256
-0.32099 -0.35279 0.42599
-0.13749 0.095809 0.062744
0.42599 0.45373 -0.19778
0.38945 0.19344 -0.01778
0.27701 0.078931 -0.078065
-0.12528 -0.12529 0.034102
0.34479 0.37992 -0.28868
0.08579 0.24023 -0.28331
-0.19917 -0.016777 0.12488
0.06393 0.17035 0.0057218
0.18643 0.068254 -0.17714
0.38876 0.21868 -0.036463
-0.29413 -0.22116 0.089257
0.23674 0.048804 -0.091057
-0.031663 0.14054 -0.010414
-0.22856 -0.17105 0.031683
-0.13441 -0.029212 0.11138
-0.062184 -0.11544 0.24502
0.33468 0.28325 -0.15408
0.1947 0.14893 -0.2424
0.3446 0.22491 -0.001155
0.6418 0.1293 -0.55907
0.18584 0.24427 -0.03848
0.14659 0.34385 -0.20369
-0.17251 -0.14453 0.16664
0.18403 -0.071164 0.16176
0.26686 0.15431 0.091234
-0.3391 -0.24887 0.43099
-0.65064 -0.38802 0.32953
-0.084437 -0.056687 0.22377
-0.1706 -0.035908 0.12896
0.064231 -0.052318 -0.057307
0.12594 0.33197 -0.19072
-0.047425 0.13833 -0.094808
0.37004 0.41846 -0.15785
0.14744 0.34863 -0.25278
-0.17854 -0.16095 0.048488
-0.042087 0.12155 0.041757
-0.071126 0.12576 -0.054678
0.056702 0.30298 -0.19985
-0.11803 -0.23016 0.22756
-0.048341 -0.0080586 -0.10038
0.28463 0.03931 0.15667
-0.32518 -0.11757 0.085831
0.23621 0.073741 0.16487
-0.11086 -0.20942 0.25755
0.14285 -0.10095 0.1868
-0.15401 -0.13526 0.12734
-0.41058 -0.27558 0.15804
-0.047561 -0.17807 0.12038
0.13585 0.22667 -0.043009
0.053044 0.31072 -0.22926
-0.28878 -0.092325 0.030811
0.38927 0.4701 -0.25505
-0.18286 -0.043556 -0.25935
-0.1931 0.021856 -0.030917
-0.65578 -0.5147 0.29462
0.10329 -0.048585 0.014073
0.081054 0.06271 0.085918
-0.23303 -0.059933 -0.029621
-0.39787 -0.28177 0.2393
0.70315 0.18191 -0.59826
0.53624 0.14301 -0.63321
-0.16104 0.09861 -0.21491
0.2662 0.31219 -0.21898
0.22009 0.096288 -0.19876
-0.13777 -0.18572 0.29008
0.15156 0.18619 0.0052309
-0.47683 -0.23704 0.21302
0.59879 0.10749 -0.58373
-0.0056393 0.27221 -0.19275
0.26866 0.089057 0.04947
0.28393 0.28532 -0.062276
-0.4543 -0.33107 0.25836
-0.20771 0.027546 0.018891
0.076062 -0.19403 0.18472
0.35583 0.23197 -0.13646
0.24105 0.17722 -0.23288
0.17039 0.23937 -0.28315
-0.26195 -0.13552 0.0014605
-0.30213 -0.26026 0.44249
0.22475 -0.041196 0.20056
-0.31928 -0.18519 0.057361
-0.59363 -0.412 0.36726
-0.29705 -0.30988 0.44307
0.23387 0.26158 -0.038645
0.17598 0.29366 -0.28381
0.022676 0.16154 0.0078699
0.662 0.10085 -0.68618
0.23756 0.075636 -0.16598
-0.21205 -0.07994 0.13824
0.30875 0.38468 -0.25152
0.28667 0.068365 0.16512
-0.43878 -0.20687 0.18631
0.091189 0.19163 -0.019699
0.56207 0.10821 -0.6741
-0.13883 -0.027863 0.15186
-0.0082931 -0.090904 0.19342
-0.27747 -0.20093 0.059563
0.60392 0.19624 -0.72441
0.29994 0.37892 -0.19773
-0.18131 -0.090187 0.19182
0.069256 0.2992 -0.27971
-0.027164 0.23837 -0.1785
-0.60418 -0.34047 0.38741
-0.24633 -0.013729 0.020297
-0.21937 -0.028531 -0.22977
0.63127 0.095636 -0.68821
0.3211 0.13498 -0.072345
0.31844 0.19565 0.048365
0.46123 0.37228 -0.22641
-0.24174 -0.14384 0.14298
0.2418 -0.015219 0.19406
0.22455 0.056339 -0.026418
-0.27272 -0.26342 0.42531
-0.14875 0.10765 -0.24668
-0.14745 -0.17423 0.13187
0.38285 0.26615 -0.24513
-0.19431 -0.1193 0.12776
0.30798 0.13822 0.10873
0.1261 0.12543 0.04786
-0.46216 -0.25407 0.18141
0.12559 0.014428 -0.12818
0.42548 0.39867 -0.16945
-0.098717 -0.13017 0.050873
-0.39202 -0.19128 0.2227
-0.2135 -0.21706 0.22659
-0.49642 -0.50924 0.54389
-0.44208 -0.27334 0.17065
0.20966 0.33107 -0.13758
0.23415 -0.033175 0.15274
0.29385 0.095283 -0.090691
-0.23695 -0.0048823 0.070877
-0.014321 0.22548 -0.25802
0.14832 0.26211 -0.074199
0.54489 0.21195 -0.63722
0.085334 0.077198 -0.19288
-0.21248 3.3535e-05 -0.022761
-0.36764 -0.24943 0.11944
0.18936 -0.075767 0.21356
-0.47859 -0.28259 0.19253
-0.024142 -0.013766 -0.10233
-0.61787 -0.38574 0.30294
-0.39283 -0.32777 0.49632
-0.14863 -0.058296 0.21696
-0.12045 0.069321 -0.070717
-0.43383 -0.51503 0.5518
0.27399 0.16129 -0.2034
0.17262 0.0067115 -0.059761
0.02574 0.22908 -0.16619
-0.10674 -0.061456 0.23486
-0.41238 -0.34467 0.5131
-0.023254 0.19791 -0.17011
0.029714 -0.1002 0.04493
0.43739 0.45304 -0.22139
-0.22616 -0.11119 0.1442
0.17364 0.014421 0.0023573
0.38823 0.31293 -0.19083
-0.64401 -0.45425 0.35268
0.32373 0.18952 -0.16612
0.18623 0.312 -0.11357
0.068494 -0.21524 0.19805
-0.21573 -0.10784 -0.027192
-0.58447 -0.42055 0.29189
-0.0039115 -0.13547 0.16422
-0.34529 -0.252 0.16635
-0.42022 -0.30926 0.24109
-0.33772 -0.32156 0.37703
0.050045 0.23025 -0.12305
-0.40929 -0.19069 0.197
-0.48957 -0.44907 0.52271
-0.12355 -0.11403 0.25766
0.01663 0.1837 -0.25066
0.23686 0.33699 -0.18638
0.31414 0.40841 -0.24444
-0.46919 -0.22172 0.23539
-0.22424 -0.26168 0.37386
-0.14127 -0.097286 0.11409
-0.14425 -0.13346 0.041863
0.42795 0.30591 -0.25005
-0.13346 -0.013854 -0.075111
-0.20807 -0.040464 -0.25152
-0.02274 0.15994 -0.030439
0.25284 0.14119 0.032001
-0.24854 -0.11549 -0.28946
-0.20445 -0.052971 -0.29838
-0.083085 -0.097571 -0.031876
-0.21843 -0.15632 0.24358
-0.39486 -0.30318 0.45608
0.11229 0.039824 0.091602
0.01523 0.089245 0.10285
-0.24856 -0.30002 0.37034
0.13533 0.0082953 0.064046
0.42097 0.34211 -0.20013
-0.26045 -0.26332 0.29516
0.26311 0.078077 -0.056522
-0.1162 0.17091 -0.20271
0.663 0.22133 -0.7034
-0.43549 -0.3145 0.20866
-0.36477 -0.2502 0.20736
-0.25368 -0.26059 0.4107
-0.62247 -0.45627 0.37133
0.045739 0.02993 -0.15069
-0.42121 -0.40514 0.56745
-0.25944 -0.050958 0.10085
0.59291 0.12144 -0.71272
0.089609 0.29637 -0.17895
-0.43124 -0.43414 0.57494
-0.25648 -0.15212 0.014387
0.21874 0.06322 -0.1628
0.052039 0.20196 -0.18998
0.6151 0.25239 -0.6745
-0.060504 -0.13151 0.024262
0.70552 0.19207 -0.62237
-0.016353 -0.13013 0.04722
-0.10299 -0.17341 0.10443
0.2647 0.1259 -0.19035
-0.17865 -0.14699 0.010062
-0.38143 -0.3742 0.51314
0.15287 0.13556 0.038855
-0.16674 -0.15291 0.032791
-0.11555 0.10799 0.0032219
0.27081 0.11569 0.14804
-0.0857 0.1771 -0.23813
0.32587 0.23536 -0.17333
-0.17657 -0.016124 -0.24246
0.056269 0.22063 -0.2697
0.014375 -0.092947 0.16825
-0.085928 0.033492 -0.10098
-0.33248 -0.23117 0.37398
0.43425 0.32429 -0.29138
0.31188 0.1668 0.082917
0.10474 0.21066 -0.26297
-0.081318 -0.026639 -0.083166
-0.4767 -0.33637 0.2927
-0.35135 -0.29273 0.4682
-0.26353 -0.083355 -0.26806
-0.02182 -0.15971 0.13195
-0.35535 -0.15401 0.12169
0.22656 -0.057405 0.17771
0.011856 0.18953 -0.096551
0.26758 0.33031 -0.19814
0.56256 0.17587 -0.57463
0.2486 0.26469 -0.24466
0.34806 0.37623 -0.15596
0.13253 0.21247 -0.02192
0.013977 -0.097754 0.011168
0.33604 0.11857 -0.024835
-0.26842 -0.05692 0.0053974
-0.40119 -0.32161 0.43852
0.119 0.086298 0.069885
-0.29609 -0.13141 0.15412
-0.33734 -0.34094 0.47395
-0.35324 -0.28036 0.45765
0.35684 0.17877 -0.12916
-0.31248 -0.21841 0.39678
-0.36047 -0.1851 0.098372
-0.1374 -0.090586 0.07633
0.0055941 -0.11455 0.039368
0.53766 0.17398 -0.62096
0.55953 0.10388 -0.64376
0.4518 0.39082 -0.30784
0.24252 0.12575 0.064655
0.35436 0.43854 -0.28378
-0.65176 -0.52606 0.33639
0.055403 0.0033842 0.13227
-0.10575 -0.1183 0.024712
0.60399 0.17232 -0.55216
0.032206 0.28853 -0.23874
-0.5361 -0.36877 0.27369
0.20267 0.314 -0.2561
-0.092571 0.095016 0.090998
-0.65239 -0.48829 0.34251
-0.65132 -0.46286 0.28518
0.3464 0.11807 0.073466
0.23105 0.12349 0.0089093
0.089295 0.22454 -0.20788
0.14853 -0.18513 0.21752
-0.40976 -0.42838 0.54815
-0.11443 -0.029171 0.19886
-0.38122 -0.19669 0.12031
0.069365 0.24734 -0.17546
-0.16073 -0.064722 0.19249
0.082673 0.22097 -0.05611
0.013608 0.10887 -0.17375
-0.075201 -0.21048 0.18195
0.067718 0.19672 -0.20491
0.13665 0.26999 -0.29926
-0.20165 -0.1471 0.27092
0.15685 0.07454 -0.1878
0.35346 0.15568 0.051923
-0.072289 -0.18923 0.12822
0.11323 -0.17148 0.15968
0.25759 0.0094773 0.18616
-0.60379 -0.46866 0.33613
0.6184 0.13943 -0.55425
-0.59308 -0.38588 0.3949
-0.14578 0.065825 -0.04759
0.46866 0.3555 -0.27611
-0.41785 -0.45009 0.50385
-0.16857 -0.069064 0.12459
-0.13337 0.1439 -0.22768
0.05844 -0.06878 0.013565
-0.50064 -0.31397 0.22081
0.37265 0.1514 -0.055036
0.36165 0.34886 -0.15714
-0.1908 -0.14672 0.19358
0.067652 0.03272 0.1115
-0.35526 -0.27482 0.37224
-0.019428 -0.036597 0.18322
0.36341 0.46294 -0.19521
0.3232 0.10129 0.010585
0.38615 0.41682 -0.31345
0.28339 0.10048 -0.147
-0.27985 -0.32836 0.39516
0.050492 0.27555 -0.17757
-0.25251 -0.047171 -0.27048
-0.16559 -0.11933 0.098847
-0.26012 -0.1921 0.32944
-0.35256 -0.24967 0.41061
0.62321 0.11688 -0.70987
-0.2099 0.0043293 -0.23853
-0.1739 0.064704 0.039903
-0.13239 0.05535 -0.21443
-0.046948 -0.16619 0.091384
-0.071032 -0.095749 0.24417
-0.57919 -0.39387 0.27584
0.24722 0.19901 0.0034539
0.55457 0.21187 -0.59808
-0.4429 -0.35685 0.57765
0.060204 0.13157 0.055679
0.01083 -0.12562 0.13073
0.53702 0.14976 -0.66483
0.20817 0.20355 -0.25753
-0.19299 -0.17332 0.31511
-0.085706 0.10292 -0.063981
0.3188 0.34544 -0.27037
-0.56158 -0.36244 0.27179
0.3435 0.4033 -0.28401
0.4723 0.38621 -0.2398
0.013487 0.18761 -0.067364
-0.1941 -0.036964 -0.044679
-0.13471 -0.11627 0.057872
-0.081971 0.12768 -0.24452
-0.5689 -0.39945 0.35195
-0.44299 -0.48439 0.58968
0.36783 0.1595 0.025475
-0.12883 0.15088 -0.1989
-0.2501 -0.18366 0.28771
-0.2314 -0.28764 0.32171
-0.11465 0.0098367 0.1357
-0.12657 -0.078983 -0.050578
-0.42848 -0.26877 0.28635
0.35856 0.15559 -0.090456
-0.15918 -0.10185 -0.036977
-0.15588 -0.11075 0.25746
0.69548 0.19056 -0.69281
0.35239 0.20889 -0.14075
-0.23239 -0.16447 0.12138
0.36497 0.17622 -0.10202
0.44625 0.41877 -0.28907
0.0077235 0.13468 -0.16558
0.25933 0.17086 -0.2193
0.012013 -0.0085067 0.16183
0.053112 -0.056474 0.13016
-0.33752 -0.13445 0.12731
-0.31398 -0.33926 0.44659
0.22452 0.061329 0.14032
-0.63055 -0.44763 0.28875
-0.37218 -0.27993 0.4404
0.61819 0.086361 -0.66986
0.093987 -0.050599 0.040241
0.15446 -0.15016 0.184
0.014141 0.11412 0.051904
0.14084 -0.13513 0.23903
-0.14771 -0.23518 0.28001
-0.27922 -0.062197 0.051589
-0.1082 0.039688 0.12869
-0.38398 -0.2689 0.15425
-0.029672 0.15947 -0.20663
-0.28975 -0.31117 0.35078
-0.030136 -0.15805 0.20771
0.65142 0.25045 -0.64237
0.14755 -0.011739 -0.030341
-0.45969 -0.4765 0.50378
0.15599 0.12724 -0.23738
0.21618 0.34149 -0.16244
0.026275 0.18979 -0.044997
-0.28416 -0.24849 0.42997
0.039073 -0.067062 0.14626
-0.22293 0.015081 0.041016
0.13224 -0.17339 0.17296
-0.010854 0.11229 -0.1567
-0.048548 0.085638 -0.13426
0.14191 -0.015204 0.0069163
-0.68113 -0.43499 0.31854
0.28236 0.32695 -0.14612
-0.07379 -0.059458 -0.064735
0.24916 0.15939 0.010081
0.19518 0.088006 -0.20098
0.30047 0.15963 0.09731
-0.023351 -0.10481 0.20985
-0.28752 -0.06233 0.03047
-0.040205 0.063519 0.14602
-0.12685 -0.20714 0.16052
-0.15478 0.070619 -0.25822
-0.47407 -0.51689 0.56442
0.57506 0.18676 -0.71782
-0.14043 0.097375 0.02965
0.09762 -0.015274 0.084569
0.29107 0.27759 -0.23235
0.29817 0.063153 0.11336
0.01936 -0.069991 -0.027461
0.090958 0.13908 -0.22818
-0.23523 -0.2446 0.26201
-0.55425 -0.33629 0.33596
0.30604 0.10576 -0.0079703
-0.17759 0.04735 -0.019812
0.085032 0.3155 -0.28005
-0.10206 -0.043266 0.21796
0.2635 0.059775 0.18118
0.69945 0.14727 -0.67531
0.097186 0.23998 -0.071662
-0.35741 -0.38028 0.47759
-0.024024 -0.13515 0.20748
-0.039119 0.15641 -0.18533
-0.019397 -0.064413 -0.052568
0.092142 0.017452 0.090991
-0.46547 -0.55022 0.56232
0.11387 0.29398 -0.29869
0.0033193 0.065908 -0.1549
0.67426 0.16297 -0.56817
-0.42636 -0.37702 0.57754
-0.23113 0.0029902 0.023363
-0.21281 -0.21838 0.35289
-0.1474 -0.2433 0.25762
0.28123 0.07982 -0.10852
0.23871 0.014064 0.19929
0.00034726 0.06274 0.14025
-0.18505 -0.27126 0.2738
-0.066754 0.21673 -0.20744
0.1816 -0.019547 0.16222
0.015645 -0.045523 -0.07136
-0.074974 0.12716 -0.18515
-0.25635 -0.017276 0.067777
-0.032275 0.11383 0.060721
0.39179 0.27596 -0.22678
0.092015 0.3203 -0.20322
0.66637 0.12137 -0.5848
0.19573 0.1462 0.024462
-0.11977 3.8186e-05 0.11598
0.17261 0.098358 -0.21931
-0.26784 -0.085247 0.13634
0.0036372 0.14877 0.013835
-0.10095 0.073246 -0.084491
-0.38175 -0.22767 0.23971
0.40886 0.45102 -0.28145
-0.50974 -0.49547 0.53166
0.076945 0.14266 0.043085
0.042338 0.13871 -0.19518
-0.53003 -0.30295 0.28968
0.39212 0.27879 -0.2642
-0.10894 -0.012626 -0.083195
0.42876 0.33999 -0.30708
-0.10079 0.1053 -0.25179
-0.068751 -0.19697 0.20297
-0.17013 -0.081272 -0.046419
-0.22619 -0.0052752 0.091875
0.63952 0.23717 -0.58174
-0.37499 -0.35477 0.42653
0.45246 0.40984 -0.19849
-0.26166 -0.3108 0.35574
0.19972 0.33754 -0.22919
0.12487 -0.026981 0.04422
0.060205 -0.056879 -0.035805
0.3258 0.24493 -0.015888
-0.18512 0.0057435 -0.22624
-0.48706 -0.4604 0.55202
0.39096 0.19986 -0.064282
-0.27951 -0.053211 0.11206
-0.12776 -0.1336 0.27008
-0.27961 -0.202 0.14378
0.26062 0.3316 -0.14672
0.11015 0.077359 -0.19624
0.20381 0.07304 0.015692
-0.3073 -0.17534 0.18033
-0.38843 -0.41979 0.49418
-0.080425 0.16196 -0.16525
0.61698 0.22938 -0.704
0.071202 0.015327 -0.13638
0.36913 0.32412 -0.3065
0.40122 0.32858 -0.18869
0.29235 0.12646 0.12586
0.61019 0.2365 -0.57979
-0.13505 -0.15888 0.1293
-0.21284 -0.16298 0.3028
0.16362 0.080602 0.044472
-0.26734 -0.089536 -0.0089032
-0.14658 -0.21214 0.1729
0.3445 0.19575 0.037018
-0.27487 -0.2752 0.30967
0.0018399 -0.050889 0.17494
-0.42006 -0.24293 0.27783
-0.27044 -0.20714 0.30356
-0.11325 -0.22374 0.20168
0.21937 0.286 -0.069209
0.28291 0.241 -0.020996
0.080496 0.23897 -0.08589
0.3021 0.31452 -0.251
-0.34661 -0.33406 0.39272
-0.44208 -0.42282 0.5903
0.048499 -0.048913 -0.072195
-0.24831 -0.048685 -0.011151
0.0089408 -0.12749 0.083697
-0.24873 -0.020397 0.09311
0.0057541 0.26683 -0.24389
0.28428 0.31627 -0.1235
-0.37715 -0.32117 0.41133
0.076407 -0.060237 0.067708
-0.007015 0.17111 -0.21003
-0.2257 -0.27312 0.28983
0.3215 0.2534 -0.19014
-0.16659 0.0068893 0.12011
0.083956 0.090266 0.082597
0.041673 -0.075792 -0.0010661
-0.0090507 0.18097 -0.22956
0.38242 0.15517 -0.030229
-0.13237 0.028005 -0.24712
-0.13192 0.066843 0.10882
-0.48871 -0.25474 0.21723
-0.39994 -0.38454 0.46568
0.064558 0.03836 -0.15745
-0.40271 -0.21872 0.13804
0.18811 -0.087538 0.1754
0.045932 0.07889 0.094978
-0.18633 -0.13225 0.26191
-0.059331 0.18544 -0.163
0.1526 -0.076964 0.18875
0.1159 0.061376 0.08321
-0.51596 -0.35139 0.25046
-0.25879 -0.13487 0.15565
-0.12895 -0.11247 0.099633
-0.1777 -0.12145 0.17871
-0.12158 0.11557 -0.18243
-0.33504 -0.14494 0.16329
0.14797 0.02714 0.0541
-0.0052986 -0.0254 -0.098167
-0.37449 -0.27759 0.4155
0.18339 0.34538 -0.20979
-0.088281 0.019346 0.16674
-0.01621 0.074504 0.13314
-0.52256 -0.37307 0.29938
0.36074 0.12847 0.011838
-0.34827 -0.32334 0.47964
0.13075 0.0015946 -0.099247
0.31374 0.19886 0.027675
-0.066491 -0.15612 0.23588
0.57731 0.12685 -0.57015
0.20881 0.254 -0.039327
0.18061 -0.10521 0.2172
-0.25956 -0.30739 0.39682
0.080644 -0.014581 -0.1089
0.267 0.087191 0.16694
-0.022215 0.16546 -0.060519
-0.18435 -0.072196 -0.30852
-0.2272 -0.28126 0.36574
0.53923 0.2057 -0.65686
-0.21295 -0.077414 -0.032461
0.072546 0.065338 -0.18051
0.33112 0.1448 -0.08847
-0.39183 -0.25573 0.13939
0.58215 0.13909 -0.71392
-0.23994 -0.013495 -5.8085e-05
-0.027104 0.24503 -0.23368
0.024582 0.17209 -0.20158
-0.059719 0.11871 -0.10981
0.31064 0.10911 -0.12331
-0.17611 0.05411 -0.21918
-0.25754 -0.11092 -0.26699
-0.16489 -0.099107 0.23628
0.026868 0.20835 -0.11019
-0.6117 -0.43116 0.37197
0.41956 0.42856 -0.30585
-0.17226 -0.24394 0.30207
-0.18549 -0.013933 -0.28314
-0.24503 -0.18524 0.042423
-0.5971 -0.44002 0.2975
-0.42905 -0.22141 0.26569
-0.11879 -0.0026054 0.15478
-0.24155 -0.12155 -0.27353
-0.46611 -0.36378 0.52534
-0.11358 -0.13494 0.076064
-0.11243 0.09902 -0.040774
0.71231 0.18467 -0.64097
0.63451 0.24653 -0.68582
-0.34112 -0.17443 0.071151
0.24723 0.071728 -0.044153
0.57729 0.15706 -0.56774
-0.034049 -0.14028 0.052593
-0.29577 -0.22817 0.41361
-0.18136 0.054138 0.0044013
-0.0092634 -0.044187 -0.071865
0.38326 0.35327 -0.16548
0.16041 -0.00019617 -0.042352
0.25696 0.069754 0.091608
0.471 0.39671 -0.26327
0.6632 0.14071 -0.71784
0.018912 0.00080808 -0.12597
-0.066974 -0.20035 0.15946
-0.25044 -0.22638 0.39001
0.33456 0.13121 0.10362
0.26634 0.076454 -0.12915
0.57511 0.24644 -0.6367
-0.021792 0.12178 0.035906
-0.48705 -0.55332 0.5436
0.049923 0.18394 -0.21175
-0.23437 -0.17257 0.29824
0.24465 0.093492 -0.012346
-0.63423 -0.38216 0.36343
0.25544 -0.013467 0.17649
-0.33838 -0.23101 0.3965
0.00073091 -0.13835 0.10358
0.37918 0.27899 -0.2933
0.26788 0.2786 -0.050771
-0.13733 -0.049843 0.10495
0.064558 0.31241 -0.26426
-0.61879 -0.49635 0.34131
-0.16552 0.04695 0.092746
-0.35339 -0.29522 0.37609
0.31077 0.082543 0.091077
-0.079597 -0.15639 0.067296
0.60396 0.10547 -0.7038
-0.13702 -0.13359 0.0042484
0.33659 0.24916 -0.26258
0.10895 0.26293 -0.097684
0.59998 0.15069 -0.55571
0.209 -0.059713 0.20561
-0.53731 -0.3251 0.33025
-0.096128 -0.0014298 0.17597
0.31774 0.25913 -0.21304
-0.049586 0.10315 0.086441
0.08722 0.027995 -0.1492
-0.057344 0.12716 0.028025
0.63426 0.25938 -0.62623
-0.055388 0.12976 -0.19659
-0.44278 -0.31674 0.26786
-0.067978 0.21226 -0.16535
-0.5876 -0.33815 0.37536
-0.50931 -0.31009 0.32028
0.28852 0.29723 -0.078456
-0.02908 0.24697 -0.20748
-0.21385 -0.18524 0.22131
0.55333 0.22187 -0.65876
0.41334 0.29495 -0.25945
0.11977 -0.19813 0.252
0.11354 -0.19692 0.17871
0.69567 0.21857 -0.65642
-0.064516 0.13922 -0.23438
-0.18013 -0.14422 0.060289
0.35657 0.27656 -0.19769
0.58902 0.24451 -0.60947
-0.0039741 0.094154 0.097307
-0.11904 -0.09428 0.26053
0.23042 0.2241 -0.25167
-0.54936 -0.3995 0.31007
0.70628 0.13812 -0.65491
0.29448 0.22787 -0.21256
0.20995 0.18038 -0.24925
-0.34588 -0.25084 0.14259
-0.24092 -0.19453 0.088217
0.096232 0.3369 -0.25384
-0.39703 -0.31322 0.48049
0.037361 0.099797 0.077277
-0.57031 -0.34819 0.37162
0.34949 0.26433 -0.12262
0.02568 0.20252 -0.14027
0.19904 0.34124 -0.17334
0.13251 -0.1599 0.23623
-0.28692 -0.043736 0.058539
0.40581 0.29058 -0.22357
0.18215 -0.037066 0.1992
-0.096471 0.086422 -0.24581
-0.27227 -0.05601 0.085993
0.11964 0.015317 0.082278
0.18702 -0.055799 0.21132
-0.16396 0.06526 0.078151
-0.039977 -0.062196 -0.058655
0.34387 0.43336 -0.17609
-0.27529 -0.16146 0.025493
-0.67637 -0.47513 0.28713
-0.10115 0.090025 -0.19811
0.27551 0.030945 0.17257
0.32664 0.11145 0.089152
0.1442 0.2906 -0.10574
-0.61346 -0.3683 0.31196
0.34868 0.13719 0.063946
0.079514 0.26297 -0.12495
0.64403 0.18922 -0.55333
0.13678 0.19676 -0.0062466
-0.28678 -0.070155 0.089158
-0.18408 -0.1668 0.18033
-0.16373 -0.19258 0.16414
0.13311 0.321 -0.1663
-0.51668 -0.28909 0.25205
-0.1806 0.016812 -0.045768
-0.44816 -0.2049 0.21896
0.27954 0.021349 0.14937
-0.20573 0.020294 -0.0042936
0.37862 0.22957 -0.078688
-0.27725 -0.2478 0.30242
0.36416 0.13174 -0.010111
-0.099184 0.16383 -0.17199
0.34948 0.1193 0.053733
-0.46692 -0.39133 0.56568
-0.39649 -0.42259 0.53004
-0.19997 -0.18522 0.20266
0.33353 0.45174 -0.23773
-0.07338 -0.080392 -0.046092
0.64319 0.088405 -0.61308
-0.086942 -0.20659 0.22129
-0.36623 -0.16811 0.18804
0.32029 0.30214 -0.14647
-0.078657 -0.12188 0.0026718
-0.12714 0.12771 -0.2462
0.17535 -0.12006 0.20461
-0.33871 -0.24109 0.18447
0.22116 0.03816 -0.066634
-0.047401 -0.088138 -0.035426
-0.34611 -0.24453 0.11811
-0.46947 -0.24041 0.27063
0.34683 0.28075 -0.2664
0.25045 0.21673 -0.0048906
0.37205 0.20017 0.0023305
-0.15663 -0.16708 0.15107
0.5674 0.10336 -0.60831
-0.5871 -0.42489 0.34683
-0.54121 -0.37168 0.34169
0.071203 0.1136 -0.20823
0.41717 0.41965 -0.1653
0.38547 0.31106 -0.29148
-0.24677 -0.16543 0.026305
-0.013709 0.13272 0.0089227
0.2714 0.16323 0.0097522
-0.060833 0.14025 -0.060097
0.20664 0.0023638 0.12996
0.60581 0.25728 -0.63527
-0.67714 -0.51819 0.29836
-0.49921 -0.52812 0.53882
-0.24512 -0.073917 0.13539
0.25348 0.32732 -0.12736
0.22478 2.7775e-06 0.12162
-0.45625 -0.4727 0.58087
-0.04033 0.22121 -0.17101
-0.37643 -0.39167 0.47385
-0.15621 -0.13673 -0.0002602
-0.48425 -0.34888 0.27379
0.68708 0.18148 -0.58439
-0.16987 -0.049859 -0.28905
-0.011463 0.24634 -0.1697
0.05101 0.21288 -0.07244
0.35186 0.25563 -0.22116
-0.1573 0.028191 -0.22534
0.02859 -0.10477 0.12673
0.31559 0.40822 -0.18756
-0.11792 -0.077978 0.069471
0.1031 0.22483 -0.27779
-0.21714 -0.17666 0.077308
-0.081476 -0.11483 0.24137
0.30767 0.29909 -0.092149
-0.073856 -0.16837 0.084092
0.30449 0.28681 -0.070998
-0.03091 0.084887 -0.14275
-0.016197 -0.091386 -0.024087
-0.50166 -0.48947 0.51473
-0.052213 -0.048471 0.20728
-0.25547 -0.11894 -0.010132
0.20997 -0.023709 0.20641
0.25674 0.10746 -0.02439
-0.19902 -0.12698 0.22564
0.19046 0.1689 0.01821
-0.61312 -0.40098 0.29047
0.1104 0.14572 0.039393
0.094877 -0.037973 -0.055556
0.68301 0.21098 -0.58929
-0.35275 -0.18184 0.19858
0.041396 0.14255 0.04114
-0.062463 0.068591 0.1343
-0.2018 -0.12305 -0.021754
-0.44438 -0.53095 0.55543
-0.081493 -0.1413 0.045806
-0.15795 0.081352 0.022183
0.66249 0.091126 -0.62114
0.033737 0.19541 -0.16413
0.17989 0.33586 -0.16802
0.67949 0.23644 -0.66445
0.66395 0.18482 -0.7147
-0.42021 -0.2989 0.19303
-0.21992 -0.062318 0.13647
0.090169 0.16771 -0.2327
-0.46596 -0.33554 0.27315
-0.33293 -0.14064 0.074102
-0.38386 -0.41941 0.51574
0.23018 0.13979 -0.22276
-0.3194 -0.24017 0.12891
-0.26993 -0.28154 0.42587
0.12043 -0.1207 0.1808
-0.62959 -0.49314 0.30499
-0.47071 -0.31607 0.20714
-0.16096 -0.10105 0.10296
-0.12063 -0.094891 -0.040757
-0.66309 -0.39922 0.33671
-0.4574 -0.41558 0.50449
-0.31527 -0.11887 0.13955
0.002277 0.21141 -0.26391
0.63798 0.1818 -0.72914
0.6901 0.11675 -0.61899
-0.57514 -0.42476 0.31018
-0.21069 -0.28244 0.29744
0.055765 0.004609 -0.12815
-0.66068 -0.41896 0.30778
-0.11894 0.052657 -0.24864
0.30979 0.22168 -0.19615
0.1771 0.31568 -0.2747
0.29346 0.11088 -0.071152
-0.36935 -0.38437 0.49806
-0.40483 -0.28883 0.18386
0.68425 0.20607 -0.69237
-0.084746 0.069804 0.12367
0.094523 0.20939 -0.037169
0.43922 0.34322 -0.22179
-0.11913 -0.094324 0.08038
-0.26107 -0.07576 -0.24208
0.58418 0.10519 -0.68835
-0.39456 -0.37187 0.45155
0.30584 0.27303 -0.04959
-0.13963 -0.075682 0.23564
-0.24018 -0.043408 -0.28485
-0.27669 -0.16478 0.1585
0.68468 0.22475 -0.60389
0.37022 0.19935 -0.1085
0.22177 0.018819 0.19212
-0.3097 -0.11644 0.047775
-0.12413 0.081882 -0.053361
-0.38426 -0.30366 0.41323
0.16291 0.34351 -0.19399
0.58027 0.22025 -0.69721
0.3431 0.25826 -0.141
-0.11315 -0.18586 0.13587
-0.47885 -0.2686 0.29462
-0.57764 -0.34043 0.33233
-0.59963 -0.40304 0.38752
0.25322 0.2991 -0.077072
-0.29291 -0.20299 0.15772
0.19002 0.060603 0.02516
-0.41703 -0.28383 0.27722
0.44132 0.31783 -0.24404
-0.0098966 -0.14926 0.11612
-0.052657 0.02884 0.17084
0.036832 0.045262 -0.15717
0.10122 0.17499 0.0056188
-0.22716 -0.20123 0.35017
0.074589 0.16107 0.018218
0.21179 0.12364 0.019992
-0.4185 -0.35715 0.46713
0.17489 0.14142 0.031992
0.031986 0.21106 -0.087303
0.30471 0.10813 -0.099137
0.25383 0.065001 -0.11916
0.1301 0.026195 -0.14216
-0.65419 -0.50748 0.33797
-0.25048 -0.22001 0.26513
-0.29856 -0.21131 0.38631
0.17335 0.024694 0.024225
-0.26342 -0.19215 0.04828
-0.02454 -0.16459 0.18563
0.61923 0.13818 -0.72166
0.36898 0.47153 -0.21338
-0.0045554 0.1768 -0.083076
-0.016133 0.018032 -0.13635
0.67197 0.15633 -0.71205
-0.047465 0.13393 -0.0012304
-0.025653 -0.12549 0.031252
-0.021459 -0.1107 0.006632
-0.2879 -0.22092 0.11354
0.34939 0.1334 -0.054673
0.65247 0.23373 -0.69416
-0.54863 -0.39006 0.33191
-0.034702 -0.049594 0.20081
0.55412 0.13652 -0.59214
0.43818 0.41247 -0.3058
-0.096951 0.11828 0.009935
0.28091 0.33951 -0.18564
0.13368 0.17713 -0.25941
0.30924 0.090711 0.13396
-0.33814 -0.36278 0.43502
-0.20447 -0.034633 -0.29345
-0.09755 -0.12251 0.2506
-0.38578 -0.2055 0.23304
0.16429 0.20386 -0.26908
0.025988 -0.051943 0.15895
0.36944 0.39186 -0.30667
0.37296 0.16375 -0.07272
0.1044 0.33009 -0.27508
0.39259 0.18913 -0.049146
0.39088 0.17788 -0.030978
-0.075921 -0.1784 0.23299
0.30265 0.077431 0.036044
-0.31253 -0.25051 0.33738
0.23061 0.085571 -0.18009
-0.037483 -0.18344 0.17105
0.11081 0.059272 -0.18121
0.65137 0.15914 -0.55659
-0.36281 -0.23295 0.21394
-0.10662 0.09907 0.079004
0.20536 0.0027146 0.19349
0.32556 0.11042 -0.0053672
0.25736 -0.016129 0.15825
-0.2026 -0.0081947 -0.227
-0.31119 -0.29754 0.45513
-0.62596 -0.34536 0.34739
-0.42547 -0.41168 0.48368
-0.28837 -0.076861 0.10715
0.28467 0.14937 0.090323
0.11286 -0.14224 0.1613
0.15108 0.047711 -0.15961
0.54676 0.18139 -0.69363
-0.31465 -0.10433 0.078384
0.20032 0.19698 0.0032299
0.12139 0.097471 -0.20996
0.14638 0.083602 -0.20003
-0.1606 -0.14661 0.049034
0.12133 0.27876 -0.10555
0.19546 0.3281 -0.24663
0.1743 0.22155 -0.27448
0.65172 0.19812 -0.72058
-0.066613 -0.10149 -0.024568
-0.15761 -0.080154 0.15016
-0.40697 -0.37025 0.54812
-0.18274 -0.26462 0.2922
-0.084659 -0.079957 0.24212
0.26834 0.10413 -0.0418
-0.43226 -0.20252 0.22869
-0.088997 -0.035089 0.20797
0.15703 -0.095287 0.22375
-0.068733 0.18156 -0.23453
-0.096899 -0.16886 0.25782
0.27296 0.23345 -0.23078
0.2551 -0.0035225 0.13067
-0.48961 -0.27529 0.20524
-0.14479 0.016795 -0.23755
0.089412 0.20401 -0.23834
-0.48235 -0.43237 0.52456
-0.29795 -0.25545 0.32714
0.12725 0.34089 -0.20663
-0.49394 -0.54336 0.52431
0.12885 0.30797 -0.29758
0.12295 0.34553 -0.24971
